0.996533 -1.007933 0.680700 13 14 18
1.003124 -1.004807 0.679813 11 15 18
1.006667 -0.997900 0.678478 14 15 20
1.008773 -0.989264 0.676942 15 16 21
1.013494 -0.983911 0.675796 16 16 26
1.019486 -0.980142 0.674837 16 18 30
1.022733 -0.973049 0.673489 25 28 37
0.793961 -0.666692 0.636259 164 161 154
0.788986 -0.651546 0.634058 174 171 162
0.788351 -0.641674 0.632475 172 170 158
0.789307 -0.633759 0.631123 178 174 163
0.791938 -0.627869 0.630007 175 171 160
0.795171 -0.622719 0.628979 175 171 160
0.797408 -0.616447 0.627823 174 170 159
0.801196 -0.612009 0.626879 175 171 162
0.805617 -0.608320 0.626023 174 170 159
0.809439 -0.603965 0.625091 174 170 161
0.809084 -0.594895 0.623624 176 172 163
-0.488434 -0.018778 0.606104 141 95 69
-0.484929 -0.021143 0.606303 141 96 67
-0.481067 -0.025780 0.606861 139 93 67
-0.476981 -0.031683 0.607617 135 91 64
-0.473267 -0.034897 0.607946 133 91 66
-0.469674 -0.037168 0.608124 130 90 65
-0.465851 -0.040759 0.608509 121 83 62
-0.461938 -0.044732 0.608954 111 76 57
-0.457937 -0.049044 0.609450 91 67 55
-0.454168 -0.051797 0.609698 43 29 26
-0.450736 -0.052445 0.609615 20 14 16
-0.447777 -0.050333 0.609097 18 17 23
-0.445107 -0.046626 0.608329 21 19 24
-0.442688 -0.041619 0.607359 26 21 25
-0.440266 -0.036755 0.606412 25 23 26
-0.438057 -0.030881 0.605309 28 26 29
-0.435770 -0.025565 0.604294 29 27 32
-0.433594 -0.019811 0.603213 31 30 35
-0.431041 -0.016120 0.602455 32 33 38
-0.428473 -0.012586 0.601722 34 35 40
-0.425576 -0.010755 0.601254 37 38 43
-0.422440 -0.010106 0.600971 36 39 44
-0.419238 -0.009761 0.600734 40 41 46
-0.416459 -0.007400 0.600185 41 41 49
-0.319571 -0.039286 0.600092 173 170 163
-0.315244 -0.041842 0.600277 170 167 160
-0.311159 -0.043516 0.600328 165 162 157
-0.306980 -0.045432 0.600414 162 159 154
-0.302626 -0.047856 0.600575 159 156 151
-0.298177 -0.050508 0.600769 158 150 148
-0.293729 -0.053076 0.600949 155 152 147
-0.289453 -0.055021 0.601034 156 149 139
-0.285522 -0.055830 0.600950 154 141 133
-0.282391 -0.054128 0.600491 174 146 145
-0.217488 -0.077583 0.600778 189 194 188
-0.208467 -0.091148 0.602537 165 170 166
-0.198269 -0.107529 0.604700 143 147 146
-0.189992 -0.118607 0.606085 161 160 156
-0.182542 -0.127341 0.607126 161 156 150
-0.175720 -0.134294 0.607905 193 184 175
-0.169243 -0.140232 0.608534 190 180 170
-0.164168 -0.142533 0.608634 194 184 174
-0.159105 -0.144739 0.608719 193 181 169
-0.153360 -0.148565 0.609037 193 181 169
-0.147575 -0.152399 0.609353 196 184 172
-0.141361 -0.157184 0.609804 195 183 171
-0.135678 -0.160591 0.610055 195 183 171
-0.130227 -0.163368 0.610214 195 181 170
-0.124972 -0.165614 0.610295 195 181 170
-0.119784 -0.167641 0.610343 196 182 171
-0.114371 -0.170138 0.610457 194 180 169
-0.108637 -0.173308 0.610666 195 181 170
-0.102607 -0.177080 0.610958 195 181 170
-0.096760 -0.180356 0.611178 194 180 169
-0.090828 -0.183746 0.611412 193 179 168
-0.084689 -0.187521 0.611699 195 178 168
-0.078250 -0.191878 0.612066 194 177 167
-0.072128 -0.195448 0.612320 195 178 168
-0.065838 -0.199304 0.612612 195 178 168
-0.059218 -0.203791 0.612990 194 177 167
-0.052693 -0.207984 0.613325 193 179 168
-0.046087 -0.212261 0.613670 192 178 167
-0.039648 -0.216100 0.613950 193 179 168
-0.033310 -0.219644 0.614188 194 177 167
-0.026966 -0.223128 0.614414 194 177 167
-0.020333 -0.227132 0.614712 194 177 167
-0.012753 -0.232989 0.615265 194 177 167
-0.005555 -0.237962 0.615693 192 175 165
0.001898 -0.243351 0.616175 190 176 165
0.008970 -0.247878 0.616536 191 177 166
0.015898 -0.252031 0.616841 191 177 166
0.022739 -0.255931 0.617110 192 178 167
0.029650 -0.259888 0.617384 193 179 168
0.036672 -0.263981 0.617674 192 178 167
0.043562 -0.267740 0.617916 194 180 169
0.050487 -0.271489 0.618155 192 180 168
0.057692 -0.275695 0.618454 193 181 169
0.064535 -0.279138 0.618646 192 180 168
0.071764 -0.283233 0.618925 191 179 167
0.078977 -0.287219 0.619187 188 178 166
0.085927 -0.290641 0.619370 189 179 167
0.092922 -0.294076 0.619552 188 178 166
0.100307 -0.298154 0.619820 187 177 165
0.107742 -0.302242 0.620087 187 179 166
0.115403 -0.306659 0.620396 186 178 167
0.122426 -0.309856 0.620537 184 178 166
0.129177 -0.312508 0.620602 184 178 166
0.136602 -0.316286 0.620817 185 179 167
0.144115 -0.320145 0.621041 188 182 170
0.152169 -0.324869 0.621380 189 183 171
0.159911 -0.328972 0.621632 190 184 172
0.167937 -0.333484 0.621936 186 182 171
0.175489 -0.337109 0.622119 185 181 170
0.183529 -0.341490 0.622400 185 181 170
0.191038 -0.344900 0.622550 186 182 171
0.198890 -0.348815 0.622764 185 183 171
0.207162 -0.353353 0.623059 186 184 172
0.216250 -0.359154 0.623519 185 183 171
0.226314 -0.366452 0.624174 183 181 169
0.236149 -0.373263 0.624761 186 184 172
0.246454 -0.380722 0.625430 187 185 173
0.255557 -0.386138 0.625825 189 187 175
0.266518 -0.394422 0.626594 190 188 176
0.277603 -0.402776 0.627369 187 187 177
0.742260 -1.096779 0.717184 84 85 89
0.752650 -1.099369 0.717036 85 89 92
0.763593 -1.102742 0.716987 86 90 91
0.772494 -1.102932 0.716522 88 92 95
0.776426 -1.095564 0.715073 89 92 97
0.782736 -1.091835 0.714098 91 95 98
0.789774 -1.089208 0.713267 92 96 99
0.795139 -1.084096 0.712115 93 97 100
0.801169 -1.079997 0.711094 94 98 101
0.806182 -1.074425 0.709884 97 101 104
0.811596 -1.069474 0.708756 98 102 105
0.819129 -1.067628 0.708027 99 103 106
0.826321 -1.065281 0.707234 99 103 106
0.834817 -1.064800 0.706679 101 102 106
0.843041 -1.063908 0.706071 102 103 107
0.851402 -1.063190 0.705484 103 104 108
0.859778 -1.062472 0.704896 103 104 108
0.867962 -1.061463 0.704271 102 103 107
0.876226 -1.060549 0.703657 103 104 108
0.883500 -1.058246 0.702866 100 104 107
0.890461 -1.055510 0.702021 100 104 107
0.896862 -1.052010 0.701079 100 104 107
0.902786 -1.047874 0.700058 101 105 108
0.909248 -1.044483 0.699132 102 103 107
0.916508 -1.042174 0.698341 103 104 108
0.923359 -1.039316 0.697481 101 102 106
0.930476 -1.036814 0.696667 97 98 102
0.936225 -1.032507 0.695627 92 93 97
0.943672 -1.030450 0.694868 84 85 89
0.950052 -1.026993 0.693935 74 75 79
0.956949 -1.024218 0.693086 61 62 66
0.961171 -1.017992 0.691812 46 47 51
0.967690 -1.014757 0.690908 39 40 45
0.974383 -1.011752 0.690033 32 33 38
0.984331 -1.012884 0.689666 27 28 33
0.990325 -1.008984 0.688681 21 22 27
0.994474 -1.002783 0.687414 18 19 24
1.000651 -0.999156 0.686464 15 16 21
1.003928 -0.991938 0.685077 14 15 20
1.005477 -0.982640 0.683439 17 16 22
1.009421 -0.976357 0.682171 17 17 25
1.016638 -0.974112 0.681393 10 13 20
1.020481 -0.967766 0.680120 29 30 35
0.809635 -0.683249 0.644436 125 125 117
0.797147 -0.659088 0.641103 174 171 162
0.794695 -0.647025 0.639227 172 169 160
0.795518 -0.638920 0.637829 171 169 157
0.797384 -0.632099 0.636587 174 170 159
0.800184 -0.626415 0.635483 173 169 158
0.801989 -0.619618 0.634248 174 170 159
0.804800 -0.614028 0.633158 174 170 159
0.809098 -0.610177 0.632276 171 168 159
0.812697 -0.605549 0.631303 172 169 160
0.812135 -0.596234 0.629780 171 168 159
-0.488298 -0.019124 0.609330 138 93 64
-0.484518 -0.023354 0.609841 147 102 73
-0.480735 -0.027388 0.610317 143 98 69
-0.476727 -0.032712 0.611001 138 94 67
-0.472989 -0.036031 0.611359 136 94 69
-0.469344 -0.038590 0.611593 134 92 67
-0.465510 -0.042198 0.611995 120 82 59
-0.461620 -0.045972 0.612422 114 79 60
-0.457647 -0.050076 0.612900 95 69 56
-0.453813 -0.053167 0.613214 65 50 45
-0.450400 -0.053656 0.613110 19 13 15
-0.447336 -0.052103 0.612678 18 15 22
-0.444486 -0.049357 0.612056 19 17 22
-0.442139 -0.043889 0.611000 24 19 23
-0.439660 -0.039283 0.610082 25 23 26
-0.437402 -0.033607 0.608995 28 26 29
-0.435055 -0.028550 0.608009 28 27 32
-0.432978 -0.022218 0.606821 31 30 35
-0.430479 -0.018200 0.606002 34 33 38
-0.427742 -0.015465 0.605388 36 37 42
-0.424861 -0.013488 0.604894 36 37 42
-0.421711 -0.012852 0.604614 37 38 43
-0.418547 -0.012266 0.604341 40 41 45
-0.415692 -0.010209 0.603835 42 43 48
-0.413025 -0.007302 0.603196 55 54 59
-0.410306 -0.004684 0.602602 124 120 117
-0.407213 -0.003806 0.602284 135 130 124
-0.404275 -0.002229 0.601855 146 141 137
-0.401081 -0.001789 0.601605 155 151 148
-0.397693 -0.002174 0.601485 162 161 156
-0.394110 -0.003354 0.601488 173 173 165
-0.390457 -0.004772 0.601528 173 173 165
-0.386499 -0.007392 0.601756 174 174 166
-0.382492 -0.010119 0.601999 173 173 165
-0.378480 -0.012764 0.602227 171 171 163
-0.374447 -0.015401 0.602453 171 171 163
-0.370387 -0.018049 0.602680 171 171 163
-0.366375 -0.020415 0.602861 170 170 162
-0.362103 -0.023702 0.603185 170 170 162
-0.358138 -0.025709 0.603308 174 174 166
-0.354384 -0.026843 0.603294 174 174 166
-0.350763 -0.027431 0.603195 169 169 161
-0.347036 -0.028365 0.603149 168 168 160
-0.343187 -0.029697 0.603164 178 175 168
-0.339458 -0.030537 0.603102 185 182 175
-0.335522 -0.032070 0.603146 183 178 172
-0.331510 -0.033808 0.603221 181 178 171
-0.327388 -0.035863 0.603343 172 169 162
-0.323266 -0.037845 0.603454 168 165 158
-0.318817 -0.040866 0.603722 164 161 154
-0.314519 -0.043291 0.603898 160 157 152
-0.310398 -0.045050 0.603970 159 156 151
-0.306117 -0.047270 0.604112 158 155 150
-0.301615 -0.050134 0.604351 157 154 149
-0.296972 -0.053369 0.604645 157 151 151
-0.292526 -0.055882 0.604828 153 154 148
-0.288514 -0.056953 0.604789 155 151 139
-0.284882 -0.056797 0.604563 197 159 156
-0.281751 -0.055071 0.604099 133 107 106
-0.279066 -0.052000 0.603430 89 88 86
-0.276321 -0.049145 0.602795 118 120 117
-0.273208 -0.047426 0.602333 134 139 135
-0.269560 -0.047298 0.602111 153 154 148
-0.265276 -0.049016 0.602168 155 156 150
-0.260167 -0.053071 0.602576 185 186 178
-0.254128 -0.059696 0.603368 209 210 202
-0.249571 -0.061951 0.603501 158 159 151
-0.244644 -0.065183 0.603779 165 166 160
-0.240724 -0.065523 0.603621 154 155 150
-0.237185 -0.064776 0.603301 165 166 161
-0.233106 -0.065502 0.603200 174 180 180
-0.227627 -0.069992 0.603661 184 190 188
-0.221442 -0.076273 0.604387 181 182 176
-0.215138 -0.082732 0.605138 204 204 196
-0.207146 -0.093509 0.606527 189 189 181
-0.199249 -0.103819 0.607843 186 188 183
-0.191863 -0.112600 0.608928 141 144 137
-0.184392 -0.121415 0.610013 153 154 146
-0.176163 -0.131983 0.611355 167 158 149
-0.167860 -0.142530 0.612689 195 185 175
-0.161616 -0.147717 0.613226 191 178 169
-0.157899 -0.146527 0.612821 196 184 172
-0.152057 -0.150558 0.613184 195 181 170
-0.146114 -0.154743 0.613568 195 181 170
-0.139834 -0.159647 0.614055 196 182 171
-0.134042 -0.163278 0.614354 195 181 170
-0.128534 -0.166151 0.614539 195 181 170
-0.123215 -0.168506 0.614647 194 180 169
-0.118029 -0.170492 0.614699 194 180 169
-0.112682 -0.172794 0.614796 195 181 170
-0.106963 -0.175892 0.615008 195 181 170
-0.100956 -0.179573 0.615303 194 180 169
-0.095193 -0.182620 0.615504 192 178 167
-0.089245 -0.186010 0.615753 194 177 167
-0.083201 -0.189539 0.616020 195 178 168
-0.076923 -0.193505 0.616348 194 177 167
-0.070754 -0.197148 0.616628 195 178 168
-0.064377 -0.201165 0.616960 194 177 167
-0.057591 -0.205975 0.617404 193 176 166
-0.050923 -0.210437 0.617795 193 179 168
-0.044328 -0.214655 0.618149 191 177 166
-0.037902 -0.218428 0.618436 191 177 166
-0.031600 -0.221866 0.618674 192 175 165
-0.025258 -0.225310 0.618910 193 176 166
-0.018677 -0.229173 0.619204 193 176 166
-0.011000 -0.235192 0.619805 192 175 165
-0.003772 -0.240189 0.620256 193 176 166
0.003679 -0.245540 0.620755 191 177 166
0.010828 -0.250186 0.621151 192 178 167
0.017724 -0.254240 0.621460 192 178 167
0.024732 -0.258433 0.621787 193 179 168
0.031826 -0.262712 0.622124 194 180 169
0.039007 -0.267074 0.622470 192 178 167
0.045979 -0.270950 0.622745 192 178 167
0.052942 -0.274732 0.623005 191 179 167
0.060226 -0.279048 0.623338 192 180 168
0.067205 -0.282704 0.623575 191 179 167
0.074486 -0.286852 0.623879 191 179 167
0.081706 -0.290806 0.624154 188 178 166
0.088874 -0.294589 0.624403 189 179 167
0.096081 -0.298367 0.624648 188 178 166
0.103453 -0.302372 0.624923 187 177 165
0.110924 -0.306478 0.625210 185 177 164
0.118846 -0.311315 0.625596 185 177 166
0.125980 -0.314661 0.625772 184 178 166
0.132892 -0.317548 0.625883 184 178 166
0.140480 -0.321560 0.626148 187 181 169
0.148219 -0.325760 0.626436 189 183 171
0.156137 -0.330192 0.626753 189 183 171
0.163897 -0.334270 0.627019 189 183 171
0.172114 -0.339054 0.627380 186 182 171
0.179604 -0.342520 0.627557 187 183 172
0.187550 -0.346688 0.627828 187 183 172
0.195045 -0.350022 0.627983 186 182 171
0.202709 -0.353572 0.628165 186 184 172
0.211331 -0.358640 0.628552 184 182 170
0.220295 -0.364182 0.629000 184 182 170
0.230698 -0.371978 0.629752 183 181 169
0.240476 -0.378639 0.630346 185 183 171
0.250397 -0.385423 0.630953 186 184 172
0.261262 -0.393609 0.631745 187 185 173
0.272497 -0.402257 0.632596 189 187 175
0.286758 -0.415557 0.634070 186 185 180
0.741289 -1.092766 0.724026 86 90 93
0.747584 -1.089047 0.723050 86 90 91
0.757024 -1.090160 0.722721 86 90 91
0.764184 -1.087757 0.721920 87 91 94
0.768334 -1.080801 0.720512 91 92 97
0.774579 -1.077048 0.719533 90 94 97
0.781574 -1.074432 0.718706 92 96 99
0.786235 -1.068351 0.717418 94 98 101
0.791537 -1.063258 0.716264 96 100 103
0.796934 -1.058338 0.715133 96 100 103
0.803210 -1.054726 0.714176 98 102 105
0.811078 -1.053437 0.713525 99 103 106
0.818310 -1.051215 0.712752 100 104 107
0.826567 -1.050457 0.712170 103 104 108
0.834795 -1.049638 0.711580 105 106 110
0.843031 -1.048810 0.710988 104 105 109
0.850560 -1.046967 0.710262 104 105 109
0.858309 -1.045424 0.709575 105 106 110
0.866215 -1.044087 0.708915 105 106 110
0.873125 -1.041360 0.708073 105 106 110
0.880469 -1.039234 0.707310 103 107 110
0.886784 -1.035696 0.706363 102 106 109
0.892328 -1.031124 0.705283 103 104 108
0.899075 -1.028199 0.704417 102 103 107
0.906343 -1.025977 0.703641 101 102 106
0.913951 -1.024207 0.702924 100 101 105
0.920742 -1.021344 0.702065 98 99 103
0.926631 -1.017295 0.701056 94 95 99
0.933929 -1.015112 0.700285 90 91 95
0.940524 -1.012009 0.699397 80 81 85
0.946921 -1.008654 0.698476 75 76 80
0.951667 -1.003181 0.697288 65 66 70
0.958844 -1.000857 0.696500 52 53 58
0.965557 -0.997940 0.695637 42 43 48
0.975106 -0.998623 0.695229 37 38 43
0.981289 -0.995027 0.694280 31 32 37
0.985253 -0.988660 0.692982 27 28 33
0.990865 -0.984392 0.691950 23 23 31
0.996188 -0.979784 0.690876 20 21 26
1.000317 -0.973727 0.689622 18 17 23
1.002530 -0.965359 0.688081 15 16 21
1.008783 -0.961983 0.687165 18 19 24
0.810735 -0.682365 0.650592 167 167 159
0.802046 -0.662732 0.647738 123 123 115
0.799316 -0.650322 0.645782 170 167 158
0.798661 -0.640459 0.644145 172 169 160
0.800291 -0.633348 0.642849 173 169 158
0.803351 -0.627952 0.641766 172 168 157
0.805147 -0.621130 0.640510 172 168 157
0.808259 -0.615869 0.639447 171 167 156
0.812544 -0.611984 0.638553 170 167 158
0.816095 -0.607283 0.637560 166 163 154
0.815673 -0.598114 0.636028 146 143 136
-0.492163 -0.013464 0.611745 134 93 65
-0.488165 -0.019452 0.612562 137 91 65
-0.484237 -0.024665 0.613250 141 94 66
-0.480475 -0.028500 0.613709 142 95 67
-0.476469 -0.033765 0.614402 145 99 73
-0.472701 -0.037232 0.614797 143 99 74
-0.469072 -0.039645 0.615017 135 93 68
-0.465247 -0.043149 0.615416 129 89 64
-0.461390 -0.046676 0.615817 115 82 63
-0.457560 -0.049879 0.616163 95 67 53
-0.453719 -0.052989 0.616493 86 60 47
-0.450203 -0.054062 0.616488 25 15 14
-0.447099 -0.052705 0.616087 18 16 21
-0.444126 -0.050621 0.615568 19 18 24
-0.441531 -0.046479 0.614714 21 20 25
-0.439121 -0.041440 0.613714 24 22 25
-0.436969 -0.035147 0.612513 27 25 30
-0.434739 -0.029428 0.611407 29 27 32
-0.432666 -0.023049 0.610195 29 28 34
-0.430077 -0.019455 0.609436 33 34 39
-0.427191 -0.017431 0.608931 34 35 40
-0.424218 -0.015863 0.608500 34 37 42
-0.421052 -0.015252 0.608225 35 38 43
-0.417966 -0.014237 0.607883 39 40 45
-0.415042 -0.012457 0.607419 41 42 47
-0.412460 -0.009110 0.606703 55 55 57
-0.409689 -0.006688 0.606136 123 118 115
-0.406353 -0.006860 0.605986 137 129 126
-0.403427 -0.005169 0.605537 145 142 137
-0.400169 -0.004954 0.605324 152 151 146
-0.396752 -0.005405 0.605218 163 162 157
-0.393133 -0.006678 0.605243 175 172 165
-0.389411 -0.008322 0.605326 177 174 167
-0.385456 -0.010865 0.605551 175 172 165
-0.381506 -0.013294 0.605758 174 171 164
-0.377586 -0.015507 0.605928 171 171 163
-0.373563 -0.018049 0.606150 171 171 163
-0.369514 -0.020602 0.606373 170 170 162
-0.365496 -0.022941 0.606560 170 170 162
-0.361289 -0.025924 0.606848 170 171 163
-0.357371 -0.027707 0.606944 180 180 172
-0.353638 -0.028723 0.606918 178 178 170
-0.349869 -0.029821 0.606905 170 170 162
-0.346073 -0.030964 0.606898 171 171 163
-0.342366 -0.031732 0.606831 178 175 168
-0.338674 -0.032401 0.606747 186 183 176
-0.334683 -0.034092 0.606824 180 177 168
-0.330739 -0.035550 0.606863 170 167 160
-0.326560 -0.037763 0.607020 162 162 154
-0.322376 -0.039921 0.607167 160 160 152
-0.317960 -0.042789 0.607424 157 157 149
-0.313755 -0.044864 0.607555 161 158 151
-0.309626 -0.046616 0.607635 158 155 150
-0.305163 -0.049397 0.607875 160 157 152
-0.300535 -0.052632 0.608183 162 157 153
-0.296027 -0.055389 0.608416 158 150 148
-0.291725 -0.057408 0.608533 147 146 141
-0.287926 -0.057778 0.608392 161 148 142
-0.284195 -0.057902 0.608213 152 126 127
-0.280873 -0.056741 0.607834 99 89 88
-0.277856 -0.054653 0.607311 113 113 111
-0.274580 -0.053363 0.606912 151 153 148
-0.270906 -0.053263 0.606697 155 155 147
-0.266822 -0.054354 0.606665 159 158 153
-0.262377 -0.056457 0.606789 156 156 146
-0.257070 -0.060994 0.607285 201 199 186
-0.251054 -0.067455 0.608076 220 218 205
-0.246124 -0.070680 0.608367 168 165 156
-0.241892 -0.071856 0.608342 167 164 159
-0.238213 -0.071443 0.608073 160 159 155
-0.234453 -0.071241 0.607835 163 162 157
-0.230127 -0.072568 0.607831 161 162 156
-0.225030 -0.075935 0.608138 170 171 165
-0.218962 -0.081828 0.608827 160 161 153
-0.213193 -0.086795 0.609373 190 190 182
-0.207267 -0.092061 0.609963 218 215 206
-0.200709 -0.098861 0.610783 199 199 189
-0.194076 -0.105713 0.611607 159 159 151
-0.187103 -0.113290 0.612539 151 152 144
-0.179325 -0.122760 0.613753 157 157 149
-0.169384 -0.137490 0.615759 162 159 152
-0.160476 -0.149361 0.617327 192 185 179
-0.155320 -0.151708 0.617454 193 183 173
-0.150789 -0.152458 0.617339 195 181 168
-0.144842 -0.156617 0.617737 196 182 171
-0.138378 -0.161931 0.618305 193 180 171
-0.132476 -0.165789 0.618653 195 183 169
-0.127036 -0.168461 0.618821 195 181 170
-0.121524 -0.171237 0.619003 195 181 170
-0.116264 -0.173356 0.619085 194 180 169
-0.111004 -0.175417 0.619157 196 179 169
-0.105351 -0.178323 0.619354 197 180 170
-0.099375 -0.181897 0.619649 194 177 167
-0.093646 -0.184832 0.619847 196 179 169
-0.087628 -0.188345 0.620129 194 177 167
-0.081617 -0.191764 0.620395 195 178 168
-0.075425 -0.195505 0.620707 193 176 166
-0.069175 -0.199291 0.621023 195 178 168
-0.062654 -0.203583 0.621413 193 177 164
-0.055752 -0.208607 0.621907 193 177 164
-0.049075 -0.213052 0.622315 195 178 168
-0.042498 -0.217192 0.622675 192 175 165
-0.036070 -0.220933 0.622974 194 177 167
-0.029799 -0.224268 0.623211 193 176 166
-0.023495 -0.227597 0.623446 192 175 165
-0.016896 -0.231461 0.623757 193 176 166
-0.009176 -0.237530 0.624389 193 176 166
-0.001931 -0.242527 0.624860 192 175 165
0.005511 -0.247822 0.625373 192 175 165
0.012747 -0.252605 0.625808 192 178 167
0.019743 -0.256823 0.626159 191 177 166
0.026621 -0.260723 0.626462 192 178 167
0.033980 -0.265484 0.626887 193 179 168
0.041034 -0.269561 0.627210 194 180 169
0.047945 -0.273284 0.627480 193 179 168
0.055094 -0.277387 0.627803 192 178 167
0.062632 -0.282144 0.628218 190 178 166
0.069736 -0.285997 0.628500 189 177 165
0.076984 -0.290041 0.628807 189 177 165
0.084225 -0.293995 0.629099 189 176 167
0.091651 -0.298211 0.629427 188 178 168
0.099004 -0.302214 0.629721 186 176 166
0.106252 -0.305947 0.629975 186 178 167
0.113814 -0.310176 0.630297 187 179 168
0.121847 -0.315166 0.630725 184 178 166
0.128902 -0.318328 0.630891 182 176 164
0.136400 -0.322207 0.631156 183 177 165
0.144386 -0.326866 0.631530 184 180 168
0.151998 -0.330792 0.631797 187 183 171
0.159691 -0.334782 0.632071 184 180 169
0.167595 -0.339059 0.632383 189 185 174
0.175961 -0.344046 0.632793 186 182 171
0.183413 -0.347396 0.632970 187 183 172
0.191218 -0.351274 0.633218 183 181 168
0.198366 -0.353981 0.633300 184 182 169
0.206324 -0.357976 0.633561 184 182 169
0.215096 -0.363242 0.633997 182 180 167
0.223788 -0.368288 0.634399 183 181 169
0.234205 -0.376057 0.635179 183 180 171
0.244254 -0.383110 0.635854 184 182 170
0.255002 -0.391174 0.636666 184 182 169
0.267350 -0.401671 0.637812 184 182 170
0.277257 -0.408135 0.638394 184 182 170
0.719436 -1.069744 0.728704 86 87 89
0.735962 -1.082009 0.729930 89 90 92
0.741100 -1.076561 0.728714 89 90 94
0.749388 -1.075967 0.728165 90 91 95
0.753763 -1.069403 0.726797 88 89 94
0.759832 -1.065447 0.725788 90 93 98
0.765697 -1.061203 0.724741 93 94 99
0.772433 -1.058280 0.723874 95 96 101
0.776461 -1.051346 0.722461 95 96 101
0.781501 -1.045958 0.721260 96 99 104
0.786747 -1.040907 0.720106 96 100 103
0.793846 -1.038584 0.719323 98 102 105
0.802056 -1.037867 0.718758 97 102 105
0.809626 -1.036209 0.718064 99 104 107
0.817806 -1.035412 0.717486 103 104 106
0.826114 -1.034777 0.716929 104 105 107
0.834097 -1.033661 0.716307 105 106 108
0.841468 -1.031669 0.715567 107 108 112
0.849079 -1.030006 0.714870 107 108 112
0.856574 -1.028172 0.714150 108 109 113
0.863619 -1.025709 0.713346 108 109 113
0.871419 -1.024281 0.712680 108 109 113
0.877505 -1.020504 0.711701 106 107 111
0.882815 -1.015688 0.710584 106 107 111
0.889681 -1.012998 0.709750 105 106 110
0.897075 -1.011017 0.709011 104 105 107
0.904787 -1.009455 0.708326 101 102 104
0.912259 -1.007562 0.707597 100 101 103
0.917685 -1.002968 0.706513 97 98 100
0.924682 -1.000455 0.705702 92 93 95
0.930691 -0.996656 0.704724 89 90 94
0.937405 -0.993785 0.703867 84 85 89
0.942483 -0.988810 0.702735 77 78 82
0.949130 -0.985873 0.701871 66 67 71
0.955513 -0.982605 0.700963 57 58 62
0.964587 -0.982753 0.700500 44 45 49
0.970190 -0.978500 0.699465 36 40 43
0.973180 -0.970995 0.698010 34 38 41
0.978541 -0.966498 0.696945 33 34 39
0.986280 -0.964968 0.696265 28 31 38
0.992006 -0.960949 0.695263 21 24 33
0.993988 -0.952360 0.693675 22 25 30
0.816744 -0.696756 0.659130 212 208 196
0.806338 -0.674925 0.655925 208 204 193
0.803662 -0.662470 0.653921 156 152 141
0.802828 -0.652298 0.652211 108 105 96
0.802082 -0.642314 0.650529 141 141 133
0.803469 -0.634904 0.649176 160 160 152
0.806968 -0.630000 0.648142 164 161 156
0.808711 -0.623098 0.646858 163 160 155
0.811236 -0.617146 0.645695 156 153 148
0.814973 -0.612620 0.644713 144 140 137
0.818449 -0.607820 0.643698 119 118 114
0.818823 -0.599546 0.642251 99 98 94
-0.491663 -0.016459 0.615413 133 91 66
-0.487554 -0.023133 0.616366 139 93 67
-0.483619 -0.028289 0.617063 138 91 63
-0.479859 -0.032018 0.617518 145 98 70
-0.475849 -0.037206 0.618216 144 98 72
-0.472150 -0.040138 0.618534 141 97 70
-0.468574 -0.042125 0.618694 139 95 70
-0.464778 -0.045380 0.619064 135 93 68
-0.460970 -0.048539 0.619417 117 82 63
-0.457245 -0.051047 0.619659 106 74 59
-0.453382 -0.054241 0.620016 91 59 44
-0.449753 -0.055926 0.620119 57 42 39
-0.446496 -0.055387 0.619853 24 18 22
-0.443466 -0.053561 0.619372 21 19 24
-0.440836 -0.049544 0.618529 23 21 26
-0.438362 -0.044782 0.617564 25 20 24
-0.436203 -0.038455 0.616340 26 24 29
-0.433934 -0.032874 0.615242 29 27 32
-0.431739 -0.027053 0.614105 29 28 34
-0.429069 -0.023797 0.613393 32 33 38
-0.426202 -0.021589 0.612855 34 35 40
-0.423254 -0.019819 0.612389 36 37 42
-0.420256 -0.018308 0.611965 36 39 44
-0.417205 -0.017066 0.611587 41 40 48
-0.414342 -0.014938 0.611062 40 41 46
-0.411723 -0.011708 0.610358 58 58 60
-0.408942 -0.009282 0.609785 122 116 116
-0.405565 -0.009584 0.609660 137 127 125
-0.402647 -0.007806 0.609194 145 142 135
-0.399284 -0.007997 0.609050 151 152 144
-0.395795 -0.008701 0.608989 163 162 157
-0.392179 -0.009899 0.609008 174 171 164
-0.388359 -0.011893 0.609156 175 172 165
-0.384392 -0.014419 0.609389 173 170 163
-0.380442 -0.016781 0.609594 172 172 164
-0.376480 -0.019103 0.609792 170 170 162
-0.372503 -0.021396 0.609984 169 169 161
-0.368443 -0.023930 0.610214 169 169 161
-0.364433 -0.026179 0.610397 167 167 159
-0.360230 -0.029087 0.610684 167 167 159
-0.356316 -0.030798 0.610778 168 168 160
-0.352573 -0.031797 0.610755 166 166 158
-0.348789 -0.032898 0.610748 171 171 163
-0.345018 -0.033895 0.610724 193 193 185
-0.341281 -0.034721 0.610671 201 198 191
-0.337535 -0.035532 0.610615 207 204 197
-0.333522 -0.037248 0.610704 165 162 155
-0.329583 -0.038635 0.610739 164 161 154
-0.325408 -0.040785 0.610896 162 159 152
-0.321120 -0.043244 0.611100 159 159 151
-0.316750 -0.045904 0.611336 158 158 150
-0.312526 -0.047991 0.611479 155 154 149
-0.308312 -0.049970 0.611603 157 154 149
-0.303834 -0.052750 0.611854 155 152 147
-0.299195 -0.055966 0.612173 153 150 145
-0.294756 -0.058447 0.612373 143 144 139
-0.290575 -0.060032 0.612430 136 141 137
-0.286831 -0.060189 0.612260 122 118 119
-0.283232 -0.059863 0.612013 88 79 82
-0.279913 -0.058661 0.611627 91 82 83
-0.276787 -0.056871 0.611148 154 146 143
-0.273362 -0.055993 0.610813 159 154 148
-0.269516 -0.056365 0.610675 166 159 153
-0.265219 -0.058041 0.610742 162 157 153
-0.260674 -0.060383 0.610912 191 187 178
-0.255166 -0.065445 0.611509 219 213 199
-0.248875 -0.072630 0.612436 231 225 211
-0.244461 -0.074324 0.612500 174 167 157
-0.240600 -0.074407 0.612311 176 171 167
-0.236527 -0.075052 0.612209 163 159 156
-0.232610 -0.075237 0.612034 158 157 152
-0.228592 -0.075666 0.611897 160 160 152
-0.223220 -0.079735 0.612327 175 175 167
-0.217051 -0.085844 0.613072 178 178 170
-0.211708 -0.089622 0.613452 176 176 166
-0.206342 -0.093370 0.613826 206 203 194
-0.201351 -0.096046 0.614031 205 201 190
-0.196118 -0.099279 0.614321 179 179 171
-0.189873 -0.105027 0.614999 149 150 144
-0.182145 -0.114418 0.616238 156 156 148
-0.173266 -0.126522 0.617891 159 156 151
-0.161141 -0.146493 0.620752 175 170 164
-0.153975 -0.153823 0.621658 195 185 175
-0.148235 -0.157505 0.622001 194 180 167
-0.143291 -0.159163 0.622030 195 181 172
-0.136662 -0.164835 0.622675 194 181 172
-0.130663 -0.168881 0.623067 192 183 168
-0.125278 -0.171380 0.623221 194 180 169
-0.119762 -0.174124 0.623410 194 180 169
-0.114379 -0.176490 0.623541 196 179 169
-0.109048 -0.178673 0.623642 196 179 169
-0.103418 -0.181485 0.623838 195 178 168
-0.097437 -0.185025 0.624142 194 177 167
-0.091816 -0.187674 0.624310 195 178 168
-0.086031 -0.190624 0.624521 194 177 167
-0.080026 -0.193995 0.624795 193 176 166
-0.073770 -0.197843 0.625139 193 176 166
-0.067489 -0.201659 0.625477 192 175 165
-0.060886 -0.206092 0.625905 191 175 162
-0.053979 -0.211089 0.626416 192 176 163
-0.047300 -0.215498 0.626836 191 174 164
-0.040590 -0.219883 0.627251 191 174 164
-0.034120 -0.223675 0.627574 190 173 163
-0.027862 -0.226943 0.627816 192 175 165
-0.021555 -0.230242 0.628061 191 174 164
-0.014915 -0.234153 0.628396 191 174 164
-0.007192 -0.240188 0.629047 192 175 165
0.000036 -0.245110 0.629528 192 175 165
0.007415 -0.250240 0.630037 194 177 167
0.014778 -0.255241 0.630525 193 179 168
0.021943 -0.259753 0.630938 191 177 166
0.029092 -0.264146 0.631330 192 178 167
0.036456 -0.268871 0.631770 191 177 166
0.043425 -0.272743 0.632081 191 177 166
0.050369 -0.276487 0.632370 191 177 166
0.057723 -0.280940 0.632762 189 177 165
0.065347 -0.285815 0.633214 190 178 166
0.072551 -0.289811 0.633534 188 176 164
0.079854 -0.293914 0.633868 189 177 165
0.087195 -0.298007 0.634198 188 175 166
0.094748 -0.302410 0.634571 187 177 167
0.102170 -0.306491 0.634894 186 176 166
0.109497 -0.310322 0.635179 185 177 166
0.117144 -0.314653 0.635534 182 176 164
0.125193 -0.319622 0.635980 184 178 166
0.132565 -0.323297 0.636235 183 177 165
0.140224 -0.327410 0.636552 183 177 165
0.147961 -0.331579 0.636874 182 178 166
0.155577 -0.335459 0.637152 184 180 168
0.163327 -0.339499 0.637451 183 179 168
0.171370 -0.343963 0.637809 186 182 171
0.179944 -0.349253 0.638283 185 181 170
0.187407 -0.352571 0.638470 183 179 168
0.195213 -0.356398 0.638729 184 182 169
0.202363 -0.359056 0.638818 183 181 168
0.210545 -0.363372 0.639142 182 180 165
0.219606 -0.369059 0.639660 182 180 167
0.229018 -0.375226 0.640245 182 180 168
0.239846 -0.383598 0.641140 184 182 170
0.249519 -0.389971 0.641747 184 182 170
0.261094 -0.399297 0.642770 187 185 173
0.273622 -0.410003 0.643986 188 185 176
0.284307 -0.417626 0.644758 181 181 171
0.712801 -1.056937 0.734211 88 90 89
0.727298 -1.066109 0.735053 91 92 94
0.733306 -1.062084 0.734030 92 93 95
0.740813 -1.060368 0.733333 96 97 101
0.743554 -1.051407 0.731617 95 96 100
0.751804 -1.050838 0.731081 94 95 99
0.757417 -1.046291 0.729988 95 96 101
0.763709 -1.042781 0.729040 97 98 103
0.768258 -1.036701 0.727734 98 99 104
0.772870 -1.030759 0.726448 97 100 105
0.778890 -1.026919 0.725457 96 99 104
0.786024 -1.024715 0.724694 97 100 105
0.794538 -1.024503 0.724207 97 100 105
0.802778 -1.023869 0.723660 98 103 107
0.810604 -1.022623 0.723028 102 103 107
0.818678 -1.021713 0.722442 102 103 107
0.826794 -1.020845 0.721861 103 104 108
0.833682 -1.018234 0.721040 104 105 109
0.840779 -1.015915 0.720258 105 106 110
0.847661 -1.013297 0.719436 107 108 112
0.854771 -1.010994 0.718656 108 109 113
0.862944 -1.010147 0.718076 107 108 112
0.868814 -1.006143 0.717064 108 109 113
0.873656 -1.000764 0.715865 108 109 113
0.879780 -0.997145 0.714907 108 109 113
0.886775 -0.994704 0.714110 108 109 113
0.894111 -0.992718 0.713374 106 107 109
0.900959 -0.990079 0.712549 106 107 109
0.906284 -0.985438 0.711454 104 105 107
0.912663 -0.982201 0.710550 102 103 105
0.918248 -0.977940 0.709508 101 102 104
0.924479 -0.974534 0.708582 97 98 100
0.929455 -0.969526 0.707440 93 94 98
0.934680 -0.964863 0.706347 85 86 90
0.940308 -0.960737 0.705326 75 76 80
0.949050 -0.960568 0.704835 61 65 68
0.953862 -0.955432 0.703680 52 56 59
0.955711 -0.946618 0.702037 39 44 48
0.959622 -0.940441 0.700747 35 40 46
0.968603 -0.940574 0.700296 31 35 44
0.976007 -0.938739 0.699584 27 31 40
0.978090 -0.930388 0.698009 25 28 33
0.810502 -0.696525 0.665860 182 176 164
0.806249 -0.681977 0.663534 190 184 172
0.803874 -0.669799 0.661524 215 209 195
0.803944 -0.660623 0.659911 211 207 195
0.804494 -0.652088 0.658386 176 174 162
0.804669 -0.643182 0.656815 122 119 110
0.806391 -0.636151 0.655491 94 94 86
0.810140 -0.631522 0.654482 100 97 90
0.811539 -0.624210 0.653126 101 98 93
0.813511 -0.617609 0.651865 95 90 86
0.816817 -0.612579 0.650808 89 86 79
0.820861 -0.608416 0.649864 110 107 100
0.822081 -0.601089 0.648515 130 130 120
-0.486924 -0.026949 0.620223 130 84 58
-0.483007 -0.031873 0.620897 143 98 69
-0.479322 -0.034994 0.621262 143 96 68
-0.475394 -0.039559 0.621872 142 97 68
-0.471714 -0.042288 0.622168 144 99 70
-0.468109 -0.044402 0.622358 139 95 66
-0.464341 -0.047404 0.622697 141 97 70
-0.460586 -0.050180 0.622998 125 88 69
-0.456879 -0.052527 0.623224 109 74 55
-0.452947 -0.056075 0.623652 90 57 42
-0.449330 -0.057636 0.623743 97 74 68
-0.445915 -0.057947 0.623621 25 14 18
-0.442793 -0.056565 0.623213 25 19 23
-0.440143 -0.052597 0.622369 23 18 24
-0.437610 -0.048084 0.621434 26 21 25
-0.435445 -0.041719 0.620187 29 24 30
-0.433062 -0.036664 0.619163 29 27 32
-0.430699 -0.031634 0.618145 29 28 34
-0.428086 -0.027999 0.617362 33 34 39
-0.425391 -0.024848 0.616660 34 35 40
-0.422510 -0.022676 0.616124 36 37 42
-0.419543 -0.020959 0.615665 37 38 43
-0.416551 -0.019374 0.615227 37 37 45
-0.413712 -0.017086 0.614672 38 41 46
-0.411025 -0.014125 0.614005 60 60 62
-0.408082 -0.012387 0.613543 120 114 114
-0.404784 -0.012273 0.613352 136 126 124
-0.401892 -0.010319 0.612854 144 141 134
-0.398437 -0.010866 0.612773 151 152 144
-0.394851 -0.011929 0.612776 165 162 157
-0.391180 -0.013301 0.612831 174 171 164
-0.387317 -0.015414 0.613007 173 173 165
-0.383354 -0.017856 0.613237 172 172 164
-0.379447 -0.019979 0.613412 171 171 163
-0.375478 -0.022270 0.613615 168 168 160
-0.371485 -0.024567 0.613818 167 167 159
-0.367468 -0.026874 0.614020 166 166 158
-0.363456 -0.029074 0.614205 163 163 155
-0.359254 -0.031925 0.614495 166 166 158
-0.355283 -0.033798 0.614623 166 166 158
-0.351534 -0.034767 0.614601 167 167 159
-0.347744 -0.035838 0.614596 167 167 159
-0.343950 -0.036867 0.614583 177 177 169
-0.340223 -0.037604 0.614521 199 196 189
-0.336493 -0.038311 0.614453 198 195 188
-0.332449 -0.040083 0.614560 161 158 151
-0.328433 -0.041693 0.614639 158 155 150
-0.324213 -0.043946 0.614821 158 155 150
-0.319979 -0.046166 0.614998 156 153 148
-0.315546 -0.048991 0.615271 153 152 147
-0.311330 -0.050997 0.615410 155 154 149
-0.307107 -0.052958 0.615541 152 151 146
-0.302611 -0.055748 0.615805 152 149 144
-0.297951 -0.058979 0.616139 146 143 138
-0.293577 -0.061205 0.616309 136 141 137
-0.289425 -0.062652 0.616352 142 152 153
-0.285945 -0.061936 0.616044 138 148 150
-0.282339 -0.061601 0.615798 140 135 141
-0.278892 -0.060758 0.615469 167 156 160
-0.275541 -0.059618 0.615092 165 160 156
-0.272073 -0.058830 0.614772 194 189 183
-0.268146 -0.059401 0.614670 163 153 151
-0.263954 -0.060719 0.614688 166 159 153
-0.259381 -0.063100 0.614875 214 207 197
-0.254016 -0.067702 0.615417 223 215 202
-0.248030 -0.073973 0.616225 229 221 208
-0.244035 -0.074449 0.616102 177 170 160
-0.240330 -0.074076 0.615844 175 170 166
-0.235986 -0.075467 0.615867 166 162 159
-0.231873 -0.076170 0.615779 161 158 153
-0.227876 -0.076521 0.615634 166 165 160
-0.222413 -0.080810 0.616115 174 173 168
-0.216377 -0.086533 0.616822 183 183 175
-0.210952 -0.090505 0.617249 164 164 154
-0.205837 -0.093564 0.617529 198 196 184
-0.201459 -0.094625 0.617491 221 219 207
-0.197210 -0.095311 0.617393 182 182 174
-0.192296 -0.097666 0.617558 181 182 177
-0.185273 -0.105309 0.618556 164 163 158
-0.177521 -0.114632 0.619816 188 187 182
-0.166198 -0.132673 0.622444 161 156 152
-0.153617 -0.153491 0.625501 184 175 166
-0.146297 -0.161028 0.626465 194 182 168
-0.142007 -0.161053 0.626247 195 181 172
-0.135115 -0.167323 0.627007 195 181 172
-0.128816 -0.172047 0.627523 191 181 169
-0.123409 -0.174554 0.627689 195 181 170
-0.117746 -0.177601 0.627939 196 179 169
-0.112291 -0.180088 0.628099 196 179 169
-0.106882 -0.182406 0.628232 195 178 168
-0.101278 -0.185109 0.628423 194 177 167
-0.095337 -0.188511 0.628722 196 179 169
-0.089708 -0.191134 0.628897 194 177 167
-0.084032 -0.193797 0.629078 193 176 166
-0.078064 -0.197041 0.629346 192 175 165
-0.071721 -0.201038 0.629730 192 175 165
-0.065458 -0.204772 0.630071 191 174 164
-0.058830 -0.209218 0.630520 193 177 164
-0.051882 -0.214258 0.631058 191 175 162
-0.045168 -0.218698 0.631501 193 176 166
-0.038418 -0.223125 0.631940 191 174 164
-0.031950 -0.226869 0.632272 192 175 165
-0.025627 -0.230231 0.632543 192 175 165
-0.019309 -0.233510 0.632800 193 176 166
-0.012634 -0.237449 0.633156 193 176 166
-0.004881 -0.243501 0.633833 193 176 166
0.002353 -0.248392 0.634330 193 176 166
0.009688 -0.253390 0.634840 194 177 167
0.017108 -0.258459 0.635359 192 178 167
0.024470 -0.263320 0.635844 191 177 166
0.031684 -0.267796 0.636267 192 178 167
0.039208 -0.272786 0.636767 191 177 166
0.046382 -0.277008 0.637147 190 176 165
0.053402 -0.280850 0.637468 190 176 165
0.060777 -0.285290 0.637877 189 177 165
0.068317 -0.289957 0.638318 188 176 164
0.075701 -0.294244 0.638699 187 175 163
0.083108 -0.298490 0.639072 187 175 163
0.090551 -0.302720 0.639440 190 177 168
0.098425 -0.307661 0.639913 187 177 167
0.105934 -0.311846 0.640269 185 175 165
0.113474 -0.316006 0.640620 184 176 165
0.121148 -0.320328 0.640992 182 176 164
0.129294 -0.325411 0.641476 183 177 165
0.136679 -0.329054 0.641742 182 176 164
0.144436 -0.333279 0.642093 182 176 164
0.152125 -0.337306 0.642413 179 175 164
0.159721 -0.341096 0.642694 181 177 166
0.167695 -0.345465 0.643060 183 179 168
0.175745 -0.349884 0.643430 184 180 169
0.184469 -0.355369 0.643955 185 181 170
0.191805 -0.358412 0.644117 184 180 169
0.199239 -0.361557 0.644293 183 181 169
0.206757 -0.364778 0.644477 182 180 168
0.215157 -0.369399 0.644865 183 181 169
0.224509 -0.375506 0.645469 184 182 170
0.234704 -0.382892 0.646257 182 180 168
0.245249 -0.390730 0.647107 184 182 169
0.255151 -0.397405 0.647783 185 183 170
0.267068 -0.407207 0.648912 183 181 169
0.277316 -0.414200 0.649627 182 182 174
0.688262 -1.029453 0.737960 85 85 85
0.703121 -1.039419 0.738966 90 90 90
0.715116 -1.044803 0.739304 93 95 94
0.721966 -1.042188 0.738483 94 95 97
0.724991 -1.033741 0.736821 97 98 100
0.733941 -1.034350 0.736466 97 98 100
0.742514 -1.034355 0.736023 97 98 100
0.748791 -1.030889 0.735080 98 99 104
0.756427 -1.029459 0.734430 99 100 105
0.761435 -1.024127 0.733220 101 102 107
0.766337 -1.018676 0.731995 99 102 107
0.772982 -1.015807 0.731140 99 102 107
0.780407 -1.014076 0.730446 99 102 109
0.789167 -1.014263 0.730026 98 101 108
0.797456 -1.013743 0.729504 99 102 109
0.804741 -1.011768 0.728774 101 102 106
0.812602 -1.010602 0.728160 100 101 105
0.820640 -1.009670 0.727577 101 102 106
0.827313 -1.006809 0.726722 102 103 107
0.834120 -1.004139 0.725893 103 104 108
0.840921 -1.001460 0.725064 103 104 108
0.847901 -0.999033 0.724269 105 106 110
0.855447 -0.997379 0.723584 106 107 111
0.861449 -0.993614 0.722602 108 109 113
0.866690 -0.988835 0.721479 108 109 113
0.872273 -0.984543 0.720425 108 109 113
0.878689 -0.981386 0.719530 107 108 112
0.885761 -0.979107 0.718757 108 109 111
0.891959 -0.975673 0.717824 108 109 111
0.896587 -0.970185 0.716607 107 108 110
0.902671 -0.966635 0.715659 108 109 111
0.907946 -0.962046 0.714568 108 109 111
0.913224 -0.957484 0.713482 105 106 108
0.917502 -0.951661 0.712223 104 105 107
0.921195 -0.945130 0.710868 101 102 104
0.925863 -0.939883 0.709691 95 99 102
0.933224 -0.938068 0.708986 85 88 93
0.935411 -0.929748 0.707390 71 76 82
0.934813 -0.918014 0.705331 53 57 66
0.938594 -0.911821 0.704031 43 50 60
0.949052 -0.913919 0.703863 36 43 53
0.956094 -0.911770 0.703116 26 30 39
0.810281 -0.703571 0.673574 178 174 165
0.805028 -0.687731 0.671024 179 173 161
0.802145 -0.674870 0.668882 183 176 166
0.801801 -0.665144 0.667166 187 181 167
0.803062 -0.657398 0.665721 203 200 185
0.804486 -0.649904 0.664312 211 207 195
0.805644 -0.642155 0.662871 211 209 196
0.807970 -0.635827 0.661623 201 199 187
0.812506 -0.632100 0.660724 182 178 169
0.814183 -0.625100 0.659390 175 171 162
0.815857 -0.618147 0.658064 182 175 167
0.819266 -0.613222 0.657010 196 192 180
0.823083 -0.608789 0.656023 214 210 198
0.824443 -0.601611 0.654673 211 207 195
-0.486218 -0.031285 0.624199 129 85 60
-0.482539 -0.034456 0.624587 137 91 65
-0.478824 -0.037701 0.624985 140 93 65
-0.474932 -0.041944 0.625556 145 98 70
-0.471252 -0.044604 0.625850 143 98 67
-0.467694 -0.046347 0.625985 147 102 71
-0.464053 -0.048500 0.626190 140 93 65
-0.460411 -0.050536 0.626374 126 88 67
-0.456706 -0.052840 0.626603 114 76 57
-0.452866 -0.055815 0.626946 99 66 51
-0.449337 -0.056844 0.626953 107 79 68
-0.445612 -0.058911 0.627138 34 20 20
-0.442108 -0.059639 0.627092 28 19 22
-0.439392 -0.055959 0.626288 25 20 26
-0.436836 -0.051495 0.625350 25 20 24
-0.434701 -0.044896 0.624047 28 23 29
-0.432406 -0.039314 0.622920 27 25 30
-0.430004 -0.034429 0.621914 28 27 33
-0.427418 -0.030592 0.621088 33 32 38
-0.424744 -0.027278 0.620352 34 35 40
-0.421774 -0.025493 0.619878 37 38 43
-0.418794 -0.023774 0.619415 38 39 44
-0.415839 -0.021956 0.618936 38 38 46
-0.413110 -0.019095 0.618280 39 42 47
-0.410556 -0.015471 0.617494 63 63 65
-0.407727 -0.013175 0.616934 119 113 113
-0.404474 -0.012826 0.616706 133 123 121
-0.401392 -0.011700 0.616346 144 139 133
-0.397947 -0.012162 0.616254 151 152 144
-0.394367 -0.013162 0.616253 165 162 157
-0.390543 -0.015152 0.616420 172 172 164
-0.386637 -0.017403 0.616629 171 171 163
-0.382573 -0.020219 0.616932 169 169 161
-0.378643 -0.022384 0.617124 168 168 160
-0.374626 -0.024820 0.617361 167 167 159
-0.370630 -0.027077 0.617567 167 167 159
-0.366617 -0.029319 0.617769 165 165 157
-0.362626 -0.031389 0.617941 164 164 156
-0.358503 -0.033890 0.618184 165 165 157
-0.354543 -0.035678 0.618307 166 166 158
-0.350756 -0.036749 0.618309 166 166 158
-0.346938 -0.037881 0.618320 167 167 159
-0.343110 -0.038995 0.618327 187 187 179
-0.339322 -0.039912 0.618300 183 183 175
-0.335617 -0.040484 0.618216 163 160 153
-0.331579 -0.042195 0.618320 161 158 151
-0.327468 -0.044094 0.618455 158 153 149
-0.323112 -0.046771 0.618719 155 152 147
-0.318790 -0.049247 0.618947 152 149 144
-0.314351 -0.052037 0.619227 151 148 143
-0.310063 -0.054235 0.619407 150 149 144
-0.305718 -0.056548 0.619605 148 147 142
-0.301203 -0.059339 0.619881 146 142 139
-0.296656 -0.062153 0.620160 143 139 136
-0.292310 -0.064234 0.620316 143 147 148
-0.288412 -0.064828 0.620225 138 131 138
-0.284992 -0.063888 0.619881 160 154 158
-0.281181 -0.064153 0.619736 156 158 157
-0.277438 -0.064182 0.619551 155 157 156
-0.274013 -0.063217 0.619202 171 171 169
-0.270475 -0.062590 0.618909 179 174 170
-0.266508 -0.063227 0.618823 165 162 153
-0.262369 -0.064334 0.618813 199 192 184
-0.258168 -0.065578 0.618825 213 204 195
-0.253482 -0.068175 0.619057 228 222 208
-0.247744 -0.073709 0.619767 220 214 202
-0.243641 -0.074479 0.619698 188 181 171
-0.239939 -0.074084 0.619439 192 187 183
-0.235721 -0.075109 0.619410 164 160 157
-0.231425 -0.076304 0.619408 156 155 150
-0.227044 -0.077689 0.619437 185 184 180
-0.221588 -0.081928 0.619927 174 175 170
-0.215805 -0.086945 0.620541 177 178 172
-0.210606 -0.090294 0.620884 180 182 171
-0.205692 -0.092811 0.621090 180 180 168
-0.201785 -0.092638 0.620860 196 196 186
-0.197914 -0.092351 0.620611 197 196 191
-0.193103 -0.094452 0.620747 174 174 172
-0.187360 -0.098858 0.621253 183 185 182
-0.180626 -0.105655 0.622142 167 169 168
-0.171588 -0.118051 0.623927 152 152 152
-0.145370 -0.162069 0.630564 192 182 172
-0.139836 -0.165088 0.630829 194 180 171
-0.133666 -0.169566 0.631327 195 181 172
-0.127342 -0.174310 0.631864 193 181 169
-0.121736 -0.177254 0.632113 196 182 171
-0.115977 -0.180484 0.632405 196 179 169
-0.110562 -0.182839 0.632556 196 179 169
-0.105163 -0.185095 0.632690 194 177 167
-0.099618 -0.187625 0.632867 192 175 165
-0.093688 -0.190965 0.633170 193 176 166
-0.088063 -0.193541 0.633351 192 175 165
-0.082367 -0.196211 0.633545 192 175 165
-0.076526 -0.199138 0.633778 192 175 165
-0.070330 -0.202776 0.634122 190 173 163
-0.064039 -0.206542 0.634484 191 174 164
-0.057404 -0.210969 0.634948 191 175 162
-0.050518 -0.215844 0.635481 191 175 162
-0.043785 -0.220295 0.635945 191 174 164
-0.036915 -0.224942 0.636437 191 174 164
-0.030467 -0.228613 0.636775 192 175 165
-0.024177 -0.231875 0.637046 191 174 164
-0.017776 -0.235295 0.637340 191 174 164
-0.010966 -0.239480 0.637751 191 174 164
-0.003164 -0.245595 0.638462 192 175 165
0.004091 -0.250495 0.638981 193 176 166
0.011529 -0.255662 0.639538 192 175 165
0.018926 -0.260652 0.640066 189 175 164
0.026280 -0.265459 0.640563 190 176 165
0.033517 -0.269946 0.641007 190 176 165
0.041188 -0.275188 0.641567 190 176 165
0.048398 -0.279443 0.641971 189 175 164
0.055470 -0.283348 0.642319 188 176 164
0.062983 -0.288016 0.642782 190 178 166
0.070703 -0.292983 0.643289 189 177 165
0.078097 -0.297248 0.643686 186 176 164
0.085328 -0.301126 0.644020 186 176 166
0.092785 -0.305346 0.644406 184 174 164
0.100982 -0.310843 0.644984 184 174 164
0.108752 -0.315462 0.645426 183 175 164
0.116320 -0.319629 0.645796 181 173 162
0.123960 -0.323845 0.646171 181 175 163
0.132179 -0.329015 0.646690 181 175 163
0.139736 -0.332919 0.647013 181 175 163
0.147645 -0.337367 0.647416 182 175 165
0.155261 -0.341220 0.647727 180 176 165
0.162891 -0.345024 0.648028 180 176 165
0.171256 -0.350022 0.648508 181 177 166
0.179374 -0.354506 0.648907 181 177 166
0.188145 -0.360022 0.649460 183 179 168
0.195770 -0.363504 0.649703 183 179 168
0.203208 -0.366604 0.649887 181 179 167
0.210563 -0.369503 0.650038 183 181 169
0.218760 -0.373738 0.650388 181 179 167
0.228262 -0.380041 0.651047 182 180 168
0.237989 -0.386611 0.651742 182 180 168
0.248195 -0.393850 0.652534 183 181 168
0.258589 -0.401276 0.653351 183 181 168
0.270699 -0.411338 0.654557 183 183 171
0.279610 -0.416151 0.654976 173 172 167
0.684523 -1.021175 0.743939 86 86 88
0.694857 -1.024134 0.743950 94 94 96
0.702742 -1.023244 0.743388 91 91 91
0.707551 -1.017619 0.742126 89 89 89
0.713375 -1.013579 0.741099 92 92 92
0.721829 -1.013543 0.740663 95 97 96
0.730365 -1.013600 0.740239 99 101 100
0.737357 -1.011316 0.739471 98 99 103
0.745822 -1.011221 0.739024 101 102 106
0.752504 -1.008461 0.738185 102 103 107
0.758005 -1.003972 0.737092 105 106 110
0.765051 -1.001762 0.736335 103 104 109
0.772483 -1.000108 0.735658 101 104 109
0.781749 -1.001090 0.735365 101 104 109
0.790026 -1.000613 0.734858 100 103 108
0.796634 -0.997734 0.734001 102 103 108
0.804356 -0.996438 0.733374 102 103 108
0.812286 -0.995421 0.732788 100 101 105
0.819030 -0.992727 0.731957 100 101 105
0.825617 -0.989818 0.731096 101 102 106
0.832223 -0.986939 0.730239 100 101 105
0.838849 -0.984093 0.729388 101 102 106
0.845564 -0.981374 0.728554 101 102 106
0.851972 -0.978239 0.727661 102 103 107
0.858021 -0.974628 0.726701 103 104 108
0.863964 -0.970888 0.725722 104 105 109
0.870257 -0.967630 0.724812 105 106 110
0.877274 -0.965342 0.724042 106 107 111
0.883511 -0.962022 0.723124 107 108 110
0.888106 -0.956559 0.721901 106 107 109
0.894140 -0.953006 0.720952 108 109 111
0.899812 -0.948996 0.719938 107 108 110
0.904658 -0.943939 0.718776 107 109 108
0.908300 -0.937366 0.717401 106 108 107
0.911445 -0.930206 0.715945 103 107 106
0.913204 -0.921339 0.714251 99 103 106
0.917061 -0.915191 0.712942 91 96 102
0.913429 -0.899690 0.710320 69 76 86
0.908882 -0.883195 0.707565 54 60 74
0.912742 -0.877283 0.706299 43 53 65
0.922943 -0.879233 0.706134 29 37 48
0.803450 -0.693102 0.678507 181 174 164
0.801700 -0.681527 0.676500 180 173 163
0.800040 -0.670161 0.674527 177 170 160
0.801001 -0.662007 0.673002 178 174 162
0.802946 -0.655080 0.671649 180 176 164
0.804890 -0.648203 0.670306 182 178 166
0.807180 -0.641781 0.669027 189 185 173
0.809837 -0.635832 0.667815 197 193 181
0.815049 -0.632876 0.667015 198 192 180
0.816849 -0.626007 0.665680 193 187 175
0.818881 -0.619453 0.664390 191 183 172
0.822063 -0.614254 0.663288 182 176 164
0.825656 -0.609553 0.662254 184 177 167
0.826124 -0.601361 0.660747 181 174 164
-0.485615 -0.034896 0.628081 132 88 63
-0.482210 -0.036082 0.628130 132 86 60
-0.478467 -0.039459 0.628565 136 91 62
-0.474544 -0.043844 0.629176 145 98 70
-0.470918 -0.046092 0.629409 150 103 73
-0.467430 -0.047333 0.629463 148 101 71
-0.463816 -0.049273 0.629640 142 97 68
-0.460200 -0.051109 0.629798 132 92 67
-0.456557 -0.053003 0.629965 121 80 58
-0.452822 -0.055332 0.630207 106 73 54
-0.449256 -0.056559 0.630255 105 74 56
-0.445342 -0.059690 0.630636 60 42 38
-0.441630 -0.061539 0.630792 29 20 21
-0.438674 -0.059129 0.630201 21 19 24
-0.436108 -0.054650 0.629250 25 20 24
-0.433938 -0.048173 0.627951 27 22 28
-0.431634 -0.042568 0.626806 26 24 29
