-0.189887 -0.058874 0.651236 148 144 141
-0.188472 -0.062949 0.652520 147 143 140
-0.186979 -0.066911 0.653705 153 149 150
-0.185078 -0.070073 0.654271 168 163 169
-0.182991 -0.072876 0.654558 171 166 172
-0.180926 -0.075747 0.654891 169 164 170
-0.178892 -0.078707 0.655284 169 164 170
-0.176827 -0.081624 0.655640 169 164 170
-0.174824 -0.084701 0.656108 170 165 171
-0.173021 -0.088243 0.656917 171 166 172
-0.171416 -0.092263 0.658072 170 165 171
-0.169436 -0.095488 0.658627 170 165 171
-0.167319 -0.098434 0.658969 171 166 170
-0.165269 -0.101559 0.659437 175 165 173
-0.163317 -0.104938 0.660084 176 169 177
-0.161774 -0.109307 0.661447 173 172 177
-0.160155 -0.113551 0.662706 175 173 176
-0.158032 -0.116646 0.663119 181 177 178
-0.156170 -0.120397 0.664001 176 172 173
-0.154521 -0.124712 0.665279 118 106 110
-0.152658 -0.128554 0.666206 163 149 148
-0.150565 -0.131869 0.666746 176 161 166
-0.148730 -0.135866 0.667766 58 47 45
-0.147015 -0.140217 0.669027 72 53 55
-0.145358 -0.144776 0.670423 153 102 85
-0.143455 -0.148754 0.671397 87 62 57
-0.141383 -0.152337 0.672082 71 61 69
-0.139322 -0.155991 0.672809 67 57 66
-0.137305 -0.159802 0.673638 60 48 58
-0.135194 -0.163405 0.674313 68 55 64
-0.133200 -0.167370 0.675231 128 116 120
-0.131217 -0.171419 0.676197 126 111 114
-0.129029 -0.174938 0.676789 173 159 159
-0.126737 -0.178202 0.677197 165 151 151
-0.124508 -0.181680 0.677745 165 151 151
-0.122283 -0.185210 0.678322 161 147 147
-0.120370 -0.189704 0.679549 162 146 149
-0.118547 -0.194532 0.680991 160 146 146
-0.116489 -0.198719 0.681986 157 141 141
-0.114364 -0.202759 0.682872 128 113 110
-0.112121 -0.206486 0.683538 193 175 175
-0.109666 -0.209594 0.683780 188 172 172
-0.107170 -0.212600 0.683950 186 171 174
-0.104779 -0.215974 0.684359 164 154 155
-0.102252 -0.218944 0.684494 161 153 150
-0.100026 -0.222937 0.685303 155 146 141
-0.097656 -0.226502 0.685819 156 146 144
-0.095132 -0.229589 0.686014 158 148 146
-0.092834 -0.233486 0.686736 160 150 148
-0.090454 -0.237149 0.687296 160 150 148
-0.088089 -0.240915 0.687916 160 150 148
-0.085728 -0.244745 0.688571 160 152 149
-0.083838 -0.250345 0.690364 160 152 149
-0.081648 -0.254939 0.691493 160 152 149
-0.079407 -0.259417 0.692535 159 151 148
-0.077110 -0.263758 0.693480 158 150 147
-0.074496 -0.266946 0.693678 156 151 147
-0.072088 -0.270974 0.694406 156 151 147
-0.069636 -0.274891 0.695055 154 149 145
-0.067457 -0.279965 0.696430 153 148 144
-0.064978 -0.283906 0.697077 153 148 144
-0.062369 -0.287367 0.697414 151 148 143
-0.059940 -0.291633 0.698250 151 148 143
-0.057272 -0.294951 0.698483 150 147 142
-0.054667 -0.298582 0.698907 150 147 142
-0.052141 -0.302616 0.699575 147 146 141
-0.049433 -0.305901 0.699771 147 146 141
-0.046600 -0.308655 0.699633 146 145 140
-0.044084 -0.312907 0.700416 146 145 140
-0.041573 -0.317258 0.701251 147 146 141
-0.038741 -0.320151 0.701184 145 146 140
-0.036156 -0.324275 0.701866 145 146 140
-0.033657 -0.328906 0.702848 145 146 140
-0.031151 -0.333586 0.703850 146 147 141
-0.028532 -0.337790 0.704554 146 147 141
-0.025846 -0.341717 0.705082 146 147 141
-0.023177 -0.345805 0.705701 145 146 141
-0.020708 -0.351058 0.707010 146 147 142
-0.018032 -0.355287 0.707695 146 147 142
-0.015561 -0.360762 0.709115 146 147 142
-0.012617 -0.363647 0.708984 147 148 143
-0.009614 -0.366216 0.708663 147 148 143
-0.006531 -0.368327 0.708069 147 148 143
-0.003447 -0.370436 0.707475 149 150 145
-0.000607 -0.374073 0.707776 150 152 147
0.002398 -0.376722 0.707494 152 155 148
0.004998 -0.382033 0.708762 150 153 146
0.008581 -0.380953 0.706303 151 153 148
0.078445 -1.123484 1.040823 60 61 65
0.083603 -1.123351 1.037995 59 60 64
0.088808 -1.121619 1.034341 56 57 61
0.094028 -1.118776 1.030122 57 58 62
0.099046 -1.120513 1.028305 57 58 62
0.104074 -1.121677 1.026196 58 59 63
0.109342 -1.114656 1.019859 60 61 65
-0.329208 0.197459 0.600554 146 149 154
-0.328104 0.195079 0.601162 147 150 155
-0.326387 0.193258 0.601158 147 151 154
-0.325462 0.190684 0.601959 148 152 155
-0.324333 0.188287 0.602563 147 151 154
-0.324080 0.185039 0.604066 147 151 154
-0.323568 0.182012 0.605319 146 150 153
-0.322561 0.179441 0.606076 147 151 154
-0.321281 0.177120 0.606558 147 151 154
-0.320904 0.173897 0.607983 147 151 154
-0.319467 0.171698 0.608320 146 150 151
-0.318361 0.169157 0.609008 148 152 153
-0.316825 0.167033 0.609253 148 152 153
-0.314999 0.165193 0.609200 148 152 153
-0.314409 0.162083 0.610453 149 153 154
-0.313486 0.159291 0.611366 151 152 154
-0.311590 0.157489 0.611256 151 152 154
-0.310679 0.154651 0.612198 152 153 155
-0.310447 0.151076 0.613878 155 156 158
-0.309788 0.147922 0.615116 153 154 156
-0.309156 0.144714 0.616396 154 155 157
-0.308506 0.141499 0.617669 157 157 159
-0.307470 0.138677 0.618537 164 164 164
-0.307281 0.134905 0.620339 76 74 75
-0.306202 0.132082 0.621184 28 26 27
-0.304778 0.129621 0.621661 37 35 36
-0.303629 0.126838 0.622448 38 37 35
-0.302301 0.124238 0.623046 40 40 40
-0.300583 0.122064 0.623219 50 50 50
-0.298921 0.119815 0.623460 98 99 101
-0.297570 0.117196 0.624055 113 114 116
-0.296080 0.114722 0.624503 172 173 177
-0.294522 0.112312 0.624882 134 135 139
-0.292970 0.109881 0.625273 142 143 147
-0.291409 0.107448 0.625662 126 127 131
-0.289596 0.105301 0.625771 100 101 103
-0.287858 0.103057 0.625969 46 47 49
-0.285920 0.101043 0.625943 32 32 34
-0.284435 0.098465 0.626445 139 140 142
-0.282994 0.095815 0.627008 30 31 33
-0.281456 0.093270 0.627465 176 177 179
-0.279967 0.090646 0.627989 24 25 29
-0.278409 0.088091 0.628440 176 175 173
-0.276965 0.085375 0.629035 46 38 35
-0.275793 0.082289 0.629962 53 43 41
-0.274497 0.079337 0.630756 61 58 65
-0.273018 0.076606 0.631338 163 166 175
-0.271602 0.073771 0.632008 170 172 184
-0.270422 0.070600 0.632974 173 173 181
-0.268256 0.068732 0.632752 165 168 177
-0.266038 0.066929 0.632469 167 167 177
-0.263487 0.065580 0.631777 169 169 177
-0.261443 0.063533 0.631711 166 166 174
-0.259778 0.060952 0.632118 165 166 171
-0.258650 0.057598 0.633204 162 163 168
-0.257549 0.054177 0.634339 164 164 172
-0.255947 0.051440 0.634859 163 163 171
-0.254369 0.048650 0.635419 164 164 172
-0.253075 0.045426 0.636350 163 163 171
-0.251585 0.042463 0.637045 165 165 173
-0.249733 0.040011 0.637286 165 166 171
-0.248080 0.037247 0.637792 164 165 170
-0.246180 0.034837 0.637987 166 167 172
-0.244256 0.032448 0.638158 166 167 172
-0.242423 0.029906 0.638455 167 168 173
-0.240564 0.027390 0.638725 166 167 171
-0.238651 0.024941 0.638933 166 165 171
-0.236856 0.022292 0.639304 163 162 168
-0.235465 0.018986 0.640225 164 163 169
-0.234060 0.015673 0.641141 162 161 167
-0.232377 0.012778 0.641697 164 163 169
-0.230756 0.009760 0.642349 161 160 165
-0.228809 0.007253 0.642567 163 162 167
-0.227039 0.004437 0.643036 162 161 166
-0.225407 0.001369 0.643708 161 160 166
-0.223994 -0.002092 0.644695 160 159 164
-0.222331 -0.005162 0.645350 158 157 162
-0.220442 -0.007871 0.645701 156 157 161
-0.218495 -0.010496 0.645979 151 152 156
-0.216493 -0.013045 0.646188 135 135 137
-0.214409 -0.015464 0.646289 146 144 145
-0.212275 -0.017809 0.646324 146 145 141
-0.210207 -0.020284 0.646461 144 143 139
-0.207933 -0.022401 0.646307 146 145 141
-0.205835 -0.024849 0.646414 147 146 142
-0.203744 -0.027323 0.646538 147 146 142
-0.201482 -0.029495 0.646418 147 146 142
-0.199299 -0.031823 0.646418 148 147 143
-0.197596 -0.035077 0.647145 148 147 143
-0.196147 -0.038848 0.648269 147 146 142
-0.194539 -0.042350 0.649172 148 147 142
-0.192988 -0.045999 0.650180 149 145 142
-0.191497 -0.049803 0.651298 149 145 142
-0.190319 -0.054271 0.652920 148 144 141
-0.189188 -0.058890 0.654644 149 145 142
-0.187738 -0.062917 0.655896 147 143 140
-0.186252 -0.066916 0.657116 153 149 150
-0.184379 -0.070159 0.657746 166 161 167
-0.182257 -0.072910 0.657993 169 164 170
-0.180126 -0.075661 0.658235 168 163 169
-0.178115 -0.078690 0.658682 169 164 170
-0.176150 -0.081846 0.659218 170 165 171
-0.174179 -0.085016 0.659759 171 166 172
-0.172416 -0.088674 0.660657 172 167 173
-0.170842 -0.092792 0.661889 170 165 171
-0.168892 -0.096112 0.662516 171 166 172
-0.166748 -0.099025 0.662833 174 167 174
-0.164728 -0.102249 0.663374 177 166 174
-0.162874 -0.105886 0.664213 175 168 175
-0.161192 -0.109967 0.665369 174 172 177
-0.159552 -0.114196 0.666621 179 173 177
-0.157515 -0.117527 0.667207 179 173 177
-0.155676 -0.121372 0.668159 176 174 175
-0.154015 -0.125695 0.669448 119 113 115
-0.152110 -0.129471 0.670329 166 156 154
-0.150000 -0.132777 0.670863 171 156 161
-0.148159 -0.136798 0.671902 66 52 52
-0.146466 -0.141245 0.673236 58 37 32
-0.144841 -0.145929 0.674727 140 112 109
-0.142893 -0.149831 0.675649 75 60 67
-0.140786 -0.153361 0.676298 64 54 63
-0.138740 -0.157094 0.677081 100 90 98
-0.136794 -0.161141 0.678078 145 134 140
-0.134704 -0.164845 0.678823 154 142 146
-0.132688 -0.168798 0.679734 115 103 107
-0.130753 -0.173026 0.680828 171 156 159
-0.128520 -0.176467 0.681364 164 150 150
-0.126186 -0.179657 0.681718 165 151 151
-0.123940 -0.183136 0.682267 161 147 147
-0.121729 -0.186754 0.682904 162 148 148
-0.119714 -0.190999 0.683963 161 145 146
-0.117809 -0.195632 0.685277 157 143 143
-0.115758 -0.199890 0.686323 161 145 145
-0.113604 -0.203886 0.687182 132 116 116
-0.111446 -0.207926 0.688060 190 172 172
-0.108988 -0.211075 0.688328 189 173 173
-0.106436 -0.213953 0.688408 186 172 172
-0.103801 -0.216586 0.688319 156 146 147
-0.101287 -0.219637 0.688507 167 157 155
-0.099076 -0.223726 0.689382 155 146 141
-0.096664 -0.227194 0.689835 157 147 145
-0.094040 -0.229980 0.689830 158 148 146
-0.091738 -0.233907 0.690574 158 148 146
-0.089356 -0.237607 0.691161 159 149 147
-0.086964 -0.241319 0.691748 159 149 147
-0.084659 -0.245393 0.692564 159 151 148
-0.082811 -0.251203 0.694503 158 150 147
-0.080604 -0.255789 0.695631 158 150 147
-0.078355 -0.260295 0.696696 158 150 147
-0.076053 -0.264671 0.697667 158 150 147
-0.073447 -0.267942 0.697916 157 152 148
-0.070999 -0.271867 0.698580 155 150 146
-0.068536 -0.275795 0.699238 153 148 144
-0.066383 -0.281038 0.700727 153 148 144
-0.063840 -0.284778 0.701248 150 147 142
-0.061194 -0.288141 0.701522 150 147 142
-0.058790 -0.292573 0.702466 150 147 142
-0.056224 -0.296386 0.703010 150 147 142
-0.053589 -0.299953 0.703393 148 145 140
-0.051077 -0.304118 0.704144 146 145 140
-0.048447 -0.307825 0.704601 146 145 140
-0.045641 -0.310777 0.704582 146 145 140
-0.043099 -0.314992 0.705342 146 145 140
-0.040479 -0.318911 0.705911 147 146 141
-0.037743 -0.322341 0.706171 145 146 140
-0.035108 -0.326311 0.706757 145 146 140
-0.032591 -0.330944 0.707742 145 146 140
-0.030020 -0.335393 0.708605 145 146 140
-0.027359 -0.339466 0.709230 145 146 140
-0.024626 -0.343229 0.709659 145 146 140
-0.021921 -0.347212 0.710214 145 146 140
-0.019495 -0.352798 0.711730 146 147 141
-0.016782 -0.356913 0.712348 146 147 141
-0.014247 -0.362125 0.713615 146 147 141
-0.011266 -0.364869 0.713397 147 148 142
-0.008297 -0.367715 0.713236 147 148 142
-0.005275 -0.370277 0.712903 148 149 143
-0.002118 -0.372021 0.712085 149 150 144
0.000679 -0.376024 0.712602 150 152 147
0.003801 -0.378016 0.711928 150 152 147
0.007193 -0.378231 0.710211 151 153 148
0.010033 -0.382069 0.710620 147 149 146
0.072030 -1.104718 1.042117 60 61 65
0.077478 -1.098494 1.036043 60 61 65
0.082455 -1.101218 1.034741 59 60 64
0.087789 -1.095650 1.029060 60 61 65
0.092809 -1.096552 1.026814 59 60 64
0.097838 -1.096849 1.024258 59 60 64
0.102736 -1.100435 1.023433 57 58 62
0.107758 -1.100198 1.020612 57 58 62
0.112778 -1.099329 1.017472 57 58 62
-0.339244 0.215311 0.600036 148 153 157
-0.338035 0.213116 0.600499 148 153 157
-0.336461 0.211231 0.600607 147 152 156
-0.336326 0.208062 0.602147 147 152 156
-0.334683 0.206215 0.602199 146 151 155
-0.333312 0.204115 0.602526 146 151 155
-0.331659 0.202261 0.602576 147 150 155
-0.330302 0.200130 0.602927 146 149 154
-0.329339 0.197626 0.603680 148 151 156
-0.328469 0.195020 0.604536 148 151 156
-0.326787 0.193154 0.604576 148 152 155
-0.325865 0.190567 0.605394 147 151 154
-0.324699 0.188193 0.605972 149 153 156
-0.324415 0.184962 0.607462 148 152 155
-0.324002 0.181829 0.608834 147 151 154
-0.323011 0.179231 0.609620 148 152 155
-0.321799 0.176829 0.610187 148 152 155
-0.321486 0.173530 0.611696 147 151 154
-0.320075 0.171292 0.612073 147 151 152
-0.318843 0.168862 0.612643 149 153 154
-0.317185 0.166847 0.612772 148 152 153
-0.315351 0.165001 0.612720 149 153 154
-0.314689 0.161952 0.613913 151 152 154
-0.313764 0.159149 0.614839 151 152 154
-0.311860 0.157342 0.614730 152 153 155
-0.310916 0.154526 0.615653 152 153 155
-0.310575 0.151053 0.617236 152 153 155
-0.309839 0.147969 0.618407 156 157 159
-0.309112 0.144851 0.619601 154 155 157
-0.308310 0.141789 0.620725 156 158 157
-0.307261 0.138970 0.621593 166 166 166
-0.307141 0.135113 0.623491 59 59 59
-0.306118 0.132217 0.624411 51 49 50
-0.304766 0.129665 0.624979 94 93 91
-0.303512 0.126988 0.625663 85 83 84
-0.302189 0.124369 0.626281 46 46 46
-0.300645 0.121986 0.626658 95 95 95
-0.299088 0.119603 0.627030 46 47 49
-0.297741 0.116965 0.627643 132 133 135
-0.296313 0.114403 0.628175 180 181 185
-0.294807 0.111916 0.628626 177 178 182
-0.293177 0.109562 0.628943 82 83 87
-0.291573 0.107163 0.629297 53 54 58
-0.289713 0.105059 0.629361 75 76 78
-0.287959 0.102818 0.629553 96 97 99
-0.285961 0.100863 0.629468 130 132 131
-0.284414 0.098346 0.629913 73 75 74
-0.282832 0.095856 0.630324 167 168 170
-0.281162 0.093463 0.630639 52 53 55
-0.279635 0.090874 0.631131 160 161 165
-0.278068 0.088320 0.631583 191 190 188
-0.276643 0.085567 0.632214 47 37 35
-0.275498 0.082433 0.633190 54 43 41
-0.274233 0.079428 0.634035 33 28 34
-0.272717 0.076731 0.634588 165 168 177
-0.271242 0.073961 0.635200 172 174 186
-0.270159 0.070647 0.636301 172 172 180
-0.268075 0.068655 0.636188 167 170 179
-0.265859 0.066835 0.635916 168 168 178
-0.263308 0.065471 0.635231 168 168 176
-0.261299 0.063360 0.635219 166 166 174
-0.259619 0.060783 0.635621 164 165 170
-0.258405 0.057534 0.636618 164 165 170
-0.257331 0.054058 0.637806 164 165 170
-0.255755 0.051267 0.638375 164 165 170
-0.254105 0.048564 0.638858 163 163 171
-0.252785 0.045361 0.639775 165 166 171
-0.251293 0.042385 0.640482 164 165 170
-0.249349 0.040053 0.640617 164 165 170
-0.247628 0.037377 0.641049 165 166 171
-0.245782 0.034870 0.641327 167 168 173
-0.243917 0.032375 0.641588 165 166 171
-0.242111 0.029777 0.641934 166 167 171
-0.240334 0.027115 0.642328 165 164 169
-0.238458 0.024590 0.642598 164 163 169
-0.236686 0.021886 0.643016 163 162 168
-0.235305 0.018544 0.643970 163 162 168
-0.233902 0.015206 0.644910 163 162 168
-0.232207 0.012310 0.645467 164 163 168
-0.230593 0.009259 0.646147 161 160 165
-0.228542 0.006900 0.646239 161 160 165
-0.226741 0.004115 0.646682 161 160 165
-0.225008 0.001196 0.647231 163 162 168
-0.223511 -0.002144 0.648121 158 157 162
-0.221805 -0.005158 0.648732 158 157 162
-0.219810 -0.007703 0.648949 158 159 163
-0.217744 -0.010139 0.649071 153 154 158
-0.215697 -0.012621 0.649227 134 134 136
-0.213565 -0.014970 0.649270 148 146 147
-0.211466 -0.017391 0.649367 145 144 140
-0.209470 -0.020010 0.649621 145 144 140
-0.207267 -0.022271 0.649580 145 144 140
-0.205212 -0.024814 0.649763 146 145 141
-0.203152 -0.027364 0.649947 147 146 142
-0.200947 -0.029660 0.649923 147 146 142
-0.198828 -0.032128 0.650033 147 146 142
-0.197111 -0.035379 0.650759 147 146 142
-0.195699 -0.039243 0.651962 147 146 142
-0.194162 -0.042909 0.652997 147 146 141
-0.192558 -0.046479 0.653947 148 144 141
-0.190983 -0.050146 0.654961 149 145 142
-0.189763 -0.054557 0.656546 147 143 140
-0.188614 -0.059165 0.658269 148 144 141
-0.187118 -0.063124 0.659475 146 142 139
-0.185641 -0.067167 0.660735 152 148 149
-0.183833 -0.070569 0.661488 164 159 165
-0.181749 -0.073423 0.661814 168 163 169
-0.179599 -0.076164 0.662046 169 164 170
-0.177569 -0.079178 0.662482 169 164 170
-0.175630 -0.082418 0.663083 172 167 173
-0.173708 -0.085721 0.663724 173 168 174
-0.172004 -0.089541 0.664747 171 166 172
-0.170470 -0.093782 0.666076 169 164 170
-0.168559 -0.097225 0.666795 171 166 172
-0.166415 -0.100172 0.667135 171 166 173
-0.164422 -0.103493 0.667747 173 168 175
-0.162567 -0.107168 0.668615 171 170 175
-0.160767 -0.111010 0.669597 173 173 175
-0.159096 -0.115203 0.670827 177 171 175
-0.157178 -0.118855 0.671648 184 175 180
-0.155442 -0.122991 0.672814 180 174 176
-0.153743 -0.127268 0.674073 105 90 95
-0.151814 -0.131029 0.674943 158 148 146
-0.149662 -0.134272 0.675430 166 155 159
-0.147738 -0.138127 0.676351 48 36 38
-0.145989 -0.142478 0.677620 58 44 35
-0.144335 -0.147130 0.679093 82 71 75
-0.142489 -0.151341 0.680238 141 131 142
-0.140405 -0.154978 0.680962 169 156 165
-0.138336 -0.158697 0.681736 138 121 127
-0.136392 -0.162798 0.682772 108 96 98
-0.134381 -0.166768 0.683705 98 86 88
-0.132307 -0.170611 0.684539 169 154 157
-0.130380 -0.174915 0.685687 165 151 151
-0.128256 -0.178719 0.686475 161 147 147
-0.125897 -0.181893 0.686814 160 146 146
-0.123641 -0.185398 0.687378 162 148 148
-0.121438 -0.189101 0.688072 158 143 146
-0.119343 -0.193168 0.689008 158 142 143
-0.117345 -0.197582 0.690174 156 142 142
-0.115276 -0.201844 0.691224 151 137 136
-0.113093 -0.205813 0.692064 136 120 120
-0.110858 -0.209670 0.692818 190 172 172
-0.108386 -0.212825 0.693087 188 172 172
-0.105741 -0.215457 0.692996 186 172 172
-0.103060 -0.217991 0.692837 149 139 138
-0.100571 -0.221175 0.693111 164 154 152
-0.098418 -0.225513 0.694154 156 147 142
-0.096071 -0.229261 0.694793 157 147 145
-0.093414 -0.231996 0.694748 157 147 145
-0.091006 -0.235616 0.695288 158 148 146
-0.088611 -0.239332 0.695884 158 148 146
-0.086239 -0.243176 0.696558 158 148 146
-0.083922 -0.247274 0.697390 158 150 147
-0.082051 -0.253075 0.699331 157 149 146
-0.079796 -0.257554 0.700391 158 150 147
-0.077481 -0.261879 0.701340 157 149 146
-0.075116 -0.266078 0.702198 157 149 146
-0.072496 -0.269351 0.702447 156 148 145
-0.070000 -0.273155 0.703034 153 148 144
-0.067490 -0.276954 0.703609 153 148 144
-0.065384 -0.282459 0.705272 152 147 143
-0.062869 -0.286376 0.705906 151 148 143
-0.060251 -0.289924 0.706296 150 147 142
-0.057780 -0.294148 0.707110 149 146 141
-0.055199 -0.297965 0.707656 149 146 141
-0.052579 -0.301670 0.708125 146 145 140
-0.050031 -0.305751 0.708824 146 145 140
-0.047445 -0.309728 0.709450 146 145 140
-0.044685 -0.312970 0.709607 146 145 140
-0.042134 -0.317231 0.710396 145 144 139
-0.039426 -0.320820 0.710758 145 146 140
-0.036770 -0.324717 0.711306 145 146 140
-0.034103 -0.328627 0.711853 145 146 140
-0.031562 -0.333234 0.712824 144 145 139
-0.028973 -0.337691 0.713692 145 146 140
-0.026267 -0.341627 0.714232 145 146 140
-0.023548 -0.345562 0.714764 146 147 141
-0.020811 -0.349467 0.715271 146 147 141
-0.018430 -0.355415 0.717011 145 146 140
-0.015669 -0.359375 0.717534 145 146 140
-0.013110 -0.364568 0.718793 146 147 141
-0.010090 -0.367185 0.718491 146 147 141
-0.007095 -0.369973 0.718291 147 148 142
-0.004113 -0.372875 0.718155 148 149 143
-0.000988 -0.374917 0.717504 149 152 145
0.001741 -0.379478 0.718350 149 151 146
0.005199 -0.379408 0.716445 151 153 148
0.008666 -0.379190 0.714459 150 152 149
0.061242 -1.074140 1.039693 61 62 66
0.066221 -1.076528 1.038216 62 63 67
0.071295 -1.077030 1.035728 61 62 66
0.076197 -1.080621 1.034905 60 61 65
0.081503 -1.075766 1.029565 59 60 64
0.086470 -1.077439 1.027731 59 60 64
0.091610 -1.074746 1.023582 58 59 63
0.096462 -1.078564 1.022901 58 59 63
0.101415 -1.079661 1.020781 58 59 63
0.106345 -1.081123 1.018859 59 60 64
0.111333 -1.080292 1.015739 58 59 63
0.116245 -1.081425 1.013660 58 59 63
-0.341370 0.223478 0.600116 147 152 156
-0.340881 0.220705 0.601273 147 152 156
-0.339783 0.218435 0.601840 148 153 157
-0.338634 0.216197 0.602364 149 154 158
-0.337821 0.213651 0.603228 147 152 156
-0.336517 0.211522 0.603611 148 153 157
-0.336422 0.208311 0.605207 148 153 157
-0.334928 0.206320 0.605417 148 153 157
-0.333448 0.204309 0.605644 148 153 157
-0.331611 0.202612 0.605516 147 150 155
-0.330267 0.200461 0.605889 147 150 155
-0.329282 0.197969 0.606632 149 152 157
-0.328266 0.195489 0.607352 148 151 156
-0.326471 0.193721 0.607284 147 151 154
-0.325627 0.191054 0.608193 149 153 156
-0.324464 0.188669 0.608785 147 151 154
-0.324064 0.185542 0.610171 148 152 155
-0.323588 0.182463 0.611492 148 152 155
-0.322576 0.179878 0.612268 148 152 155
-0.321310 0.177525 0.612787 148 152 155
-0.320882 0.174332 0.614192 148 152 155
-0.319540 0.172019 0.614649 148 152 153
-0.318248 0.169644 0.615165 149 153 154
-0.316561 0.167652 0.615271 149 153 154
-0.314737 0.165791 0.615234 150 154 155
-0.313810 0.163006 0.616159 151 152 154
-0.312794 0.160294 0.616998 151 152 154
-0.311169 0.158193 0.617193 153 154 156
-0.310493 0.155092 0.618415 154 155 157
-0.310168 0.151595 0.620033 152 153 155
-0.309265 0.148681 0.621037 154 155 157
-0.308707 0.145375 0.622430 155 156 158
-0.307993 0.142209 0.623666 156 158 157
-0.306987 0.139335 0.624594 157 159 158
-0.306743 0.135605 0.626374 81 81 79
-0.305830 0.132577 0.627431 121 120 118
-0.304533 0.129955 0.628071 34 33 31
-0.303239 0.127311 0.628725 89 87 88
-0.301883 0.124720 0.629317 147 145 146
-0.300427 0.122226 0.629804 109 109 109
-0.298889 0.119811 0.630208 159 159 159
-0.297405 0.117320 0.630679 17 18 20
-0.295998 0.114723 0.631246 87 88 90
-0.294565 0.112140 0.631792 157 158 162
-0.292926 0.109785 0.632110 72 73 77
-0.291263 0.107445 0.632406 146 147 151
-0.289437 0.105289 0.632520 93 94 96
-0.287713 0.102999 0.632758 38 39 41
-0.285564 0.101218 0.632504 124 124 124
-0.284077 0.098616 0.633031 7 7 7
-0.282589 0.095998 0.633565 102 103 105
-0.280918 0.093592 0.633891 53 54 56
-0.279312 0.091091 0.634301 41 42 46
-0.277830 0.088416 0.634868 160 158 159
-0.276394 0.085664 0.635499 53 44 39
-0.275072 0.082746 0.636278 47 33 30
-0.273760 0.079791 0.637081 25 16 19
-0.272258 0.077064 0.637663 172 172 182
-0.270739 0.074340 0.638235 172 175 184
-0.269589 0.071104 0.639270 171 171 181
-0.267533 0.069063 0.639200 169 172 181
-0.265449 0.067052 0.639099 168 168 176
-0.262875 0.065707 0.638390 168 168 176
-0.260909 0.063525 0.638441 167 167 175
-0.259193 0.060985 0.638812 165 166 171
-0.257961 0.057747 0.639803 165 166 171
-0.256893 0.054248 0.641018 164 165 170
-0.255369 0.051370 0.641665 164 165 170
-0.253813 0.048516 0.642284 164 165 170
-0.252305 0.045572 0.642974 163 164 169
-0.250716 0.042722 0.643573 164 165 170
-0.248635 0.040581 0.643540 164 165 170
-0.246832 0.038015 0.643877 164 165 170
-0.244978 0.035509 0.644155 167 168 173
-0.243160 0.032934 0.644488 165 164 169
-0.241429 0.030209 0.644945 165 164 169
-0.239575 0.027655 0.645248 165 164 169
-0.237784 0.024986 0.645644 163 162 168
-0.236156 0.022043 0.646268 165 164 170
-0.234833 0.018591 0.647321 164 163 169
-0.233516 0.015100 0.648395 163 162 168
-0.231911 0.012039 0.649093 162 161 166
-0.230334 0.008909 0.649842 161 160 165
-0.228157 0.006738 0.649773 161 160 165
-0.226270 0.004077 0.650112 160 159 164
-0.224590 0.001050 0.650752 161 160 166
-0.223092 -0.002309 0.651661 159 158 163
-0.221285 -0.005171 0.652147 160 159 164
-0.219268 -0.007694 0.652345 159 160 164
-0.217247 -0.010226 0.652546 156 157 161
-0.215051 -0.012467 0.652502 137 137 139
-0.212783 -0.014591 0.652359 147 145 146
-0.210685 -0.017027 0.652468 146 145 141
-0.208696 -0.019673 0.652745 144 143 139
-0.206501 -0.021964 0.652727 145 144 140
-0.204446 -0.024522 0.652923 145 144 140
-0.202409 -0.027131 0.653154 146 145 141
-0.200165 -0.029369 0.653083 147 146 142
-0.198104 -0.031965 0.653294 146 145 141
-0.196403 -0.035264 0.654062 147 146 142
-0.194931 -0.039033 0.655195 146 145 141
-0.193328 -0.042589 0.656148 146 145 140
-0.191753 -0.046236 0.657163 147 143 140
-0.190232 -0.050026 0.658280 147 143 140
-0.188919 -0.054275 0.659747 148 144 141
-0.187705 -0.058773 0.661395 148 144 141
-0.186263 -0.062862 0.662708 146 142 139
-0.184832 -0.067019 0.664063 154 150 151
-0.183014 -0.070421 0.664820 166 161 167
-0.180952 -0.073342 0.665198 165 160 166
-0.178922 -0.076355 0.665640 170 165 171
-0.176882 -0.079373 0.666080 167 162 168
-0.174919 -0.082585 0.666661 172 167 173
-0.173047 -0.086026 0.667409 172 167 173
-0.171333 -0.089850 0.668439 170 165 171
-0.169762 -0.094035 0.669732 169 164 170
-0.167862 -0.097531 0.670493 172 167 173
-0.165758 -0.100595 0.670921 173 166 174
-0.163735 -0.103876 0.671505 176 169 177
-0.161843 -0.107493 0.672332 175 170 176
-0.160119 -0.111543 0.673473 175 170 174
-0.158413 -0.115687 0.674672 181 172 177
-0.156478 -0.119329 0.675488 179 174 178
-0.154710 -0.123420 0.676626 182 180 181
-0.152949 -0.127578 0.677802 125 113 113
-0.150950 -0.131193 0.678569 156 149 143
-0.148863 -0.134630 0.679198 155 145 146
-0.146974 -0.138607 0.680212 66 51 54
-0.145166 -0.142837 0.681399 69 55 55
-0.143389 -0.147207 0.682675 145 132 139
-0.141489 -0.151307 0.683746 90 77 86
-0.139485 -0.155186 0.684647 138 126 128
-0.137360 -0.158786 0.685339 133 122 120
-0.135369 -0.162790 0.686311 103 91 91
-0.133391 -0.166881 0.687334 136 122 122
-0.131447 -0.171120 0.688452 119 105 105
-0.129567 -0.175594 0.689725 164 150 150
-0.127445 -0.179442 0.690546 163 149 149
-0.125066 -0.182595 0.690871 159 145 145
-0.122741 -0.185939 0.691323 155 141 141
-0.120536 -0.189672 0.692039 155 141 141
-0.118439 -0.193777 0.693006 152 136 137
-0.116358 -0.197983 0.694032 154 140 140
-0.114286 -0.202275 0.695108 125 111 110
-0.112167 -0.206479 0.696113 197 181 181
-0.109955 -0.210454 0.696950 186 170 170
-0.107352 -0.213234 0.696962 188 172 172
-0.104623 -0.215630 0.696707 186 174 174
-0.102031 -0.218485 0.696764 145 137 135
-0.099516 -0.221623 0.697006 159 149 147
-0.097393 -0.226106 0.698152 154 145 140
-0.095168 -0.230314 0.699102 156 146 144
-0.092619 -0.233464 0.699332 157 147 145
-0.090198 -0.237099 0.699882 157 147 145
-0.087758 -0.240710 0.700408 157 147 145
-0.085418 -0.244730 0.701198 157 147 145
-0.083066 -0.248764 0.701989 157 149 146
-0.081109 -0.254315 0.703773 158 150 147
-0.078803 -0.258663 0.704751 158 150 147
-0.076510 -0.263129 0.705795 157 149 146
-0.074116 -0.267282 0.706625 156 148 145
-0.071448 -0.270420 0.706784 153 148 144
-0.068910 -0.274115 0.707301 154 149 145
-0.066321 -0.277654 0.707709 152 147 143
-0.064236 -0.283308 0.709476 152 147 143
-0.061790 -0.287574 0.710336 149 146 141
-0.059274 -0.291614 0.711041 149 146 141
-0.056779 -0.295806 0.711835 148 145 140
-0.054078 -0.299174 0.712095 147 146 141
-0.051435 -0.302840 0.712539 146 145 140
-0.048855 -0.306849 0.713194 145 144 139
-0.046257 -0.310839 0.713829 145 144 139
-0.043489 -0.314102 0.713998 144 145 139
-0.041009 -0.318774 0.715047 145 144 139
-0.038352 -0.322684 0.715609 145 146 140
-0.035704 -0.326705 0.716232 145 146 140
-0.032991 -0.330468 0.716688 145 146 140
-0.030353 -0.334677 0.717414 145 146 140
-0.027606 -0.338402 0.717832 143 144 138
-0.024790 -0.341827 0.718059 144 145 139
-0.022087 -0.345908 0.718683 146 147 141
-0.019282 -0.349511 0.719007 144 145 139
-0.016812 -0.355037 0.720499 145 146 140
-0.014051 -0.359050 0.721058 146 147 141
-0.011516 -0.364445 0.722447 146 147 141
-0.008403 -0.366562 0.721842 146 147 141
-0.005336 -0.368959 0.721405 146 149 142
-0.002409 -0.372228 0.721491 148 151 144
0.000429 -0.376108 0.721939 149 152 145
0.003253 -0.380161 0.722484 152 155 148
0.006960 -0.378496 0.719615 151 153 148
0.009977 -0.381302 0.719415 149 151 148
0.049240 -1.065491 1.049033 69 71 70
0.054717 -1.060376 1.043434 67 69 68
0.059858 -1.059984 1.040439 64 66 65
0.065036 -1.058559 1.036894 64 65 67
0.070051 -1.059587 1.034696 63 64 66
0.074901 -1.063557 1.034097 62 63 65
0.079755 -1.067530 1.033498 61 62 64
0.084992 -1.063274 1.028469 62 63 67
0.089820 -1.067503 1.028015 62 63 67
0.094979 -1.063606 1.023212 59 60 64
0.099799 -1.067731 1.022709 60 61 65
0.104745 -1.068328 1.020328 59 60 64
0.109623 -1.070610 1.018848 59 60 64
0.114554 -1.070826 1.016278 56 57 61
0.119509 -1.069462 1.012886 58 59 63
-0.363843 0.251784 0.600859 147 152 158
-0.362117 0.250143 0.600765 147 152 158
-0.360633 0.248314 0.600900 148 153 159
-0.358807 0.246742 0.600716 147 152 158
-0.356923 0.245212 0.600478 148 151 158
-0.355382 0.243411 0.600568 148 151 158
-0.353916 0.241545 0.600732 148 151 158
-0.353010 0.239224 0.601437 149 152 159
-0.350824 0.237918 0.600919 149 152 157
-0.348869 0.236426 0.600622 149 152 157
-0.347394 0.234540 0.600792 149 152 157
-0.345934 0.232635 0.600980 149 152 157
-0.345338 0.230008 0.602013 149 152 157
-0.344059 0.227932 0.602388 149 152 157
-0.342146 0.226377 0.602146 149 154 158
-0.341117 0.224072 0.602776 149 154 158
-0.340700 0.221233 0.604017 150 155 159
-0.339754 0.218826 0.604744 148 153 157
-0.338619 0.216567 0.605292 147 152 156
-0.337833 0.213992 0.606194 149 154 158
-0.336635 0.211760 0.606694 148 153 157
-0.336655 0.208439 0.608422 149 154 158
-0.335320 0.206297 0.608800 148 153 157
-0.333799 0.204312 0.608997 148 153 157
-0.331945 0.202618 0.608860 150 153 158
-0.330605 0.200453 0.609247 149 153 156
-0.329458 0.198099 0.609838 149 153 156
-0.328308 0.195734 0.610433 148 152 155
-0.326524 0.193946 0.610383 148 152 155
-0.325640 0.191306 0.611265 150 154 157
-0.324473 0.188916 0.611863 149 153 156
-0.323976 0.185873 0.613165 149 153 156
-0.323375 0.182905 0.614372 150 154 157
-0.322314 0.180360 0.615108 150 154 157
-0.321045 0.178001 0.615635 150 154 157
-0.320546 0.174871 0.616981 150 154 157
-0.319188 0.172567 0.617430 149 153 154
-0.317852 0.170227 0.617910 150 154 155
-0.316258 0.168135 0.618121 149 153 154
-0.314399 0.166300 0.618055 151 152 154
-0.313184 0.163802 0.618683 152 153 155
-0.312224 0.161027 0.619594 152 153 155
-0.310975 0.158531 0.620202 154 155 157
-0.310256 0.155464 0.621395 153 154 156
-0.309723 0.152177 0.622804 155 156 160
-0.308801 0.149275 0.623800 155 156 158
-0.308327 0.145873 0.625300 155 156 158
-0.307549 0.142768 0.626481 156 158 157
-0.306660 0.139758 0.627551 158 160 159
-0.306510 0.135915 0.629457 151 151 149
-0.305698 0.132767 0.630641 130 129 127
-0.304346 0.130194 0.631232 41 40 36
-0.303083 0.127505 0.631933 67 65 66
-0.301830 0.124785 0.632655 111 109 110
-0.300302 0.122361 0.633074 22 22 22
-0.298723 0.119981 0.633442 133 133 133
-0.297307 0.117399 0.634004 139 141 140
-0.295860 0.114836 0.634539 48 49 51
-0.294325 0.112360 0.634980 122 123 125
-0.292694 0.109985 0.635318 66 65 70
-0.291051 0.107609 0.635649 64 65 67
-0.289247 0.105414 0.635799 164 165 167
-0.287516 0.103120 0.636039 146 146 148
-0.285293 0.101417 0.635706 59 59 59
-0.283769 0.098849 0.636201 105 105 105
-0.282232 0.096280 0.636690 77 77 79
-0.280616 0.093795 0.637092 83 83 85
-0.279041 0.091240 0.637553 129 130 132
-0.277544 0.088573 0.638115 126 126 128
-0.276052 0.085879 0.638693 95 86 81
-0.274773 0.082892 0.639539 48 33 30
-0.273462 0.079923 0.640358 31 21 22
-0.271954 0.077191 0.640947 170 170 180
-0.270419 0.074475 0.641512 176 179 188
-0.269212 0.071301 0.642494 174 174 184
-0.267092 0.069334 0.642354 170 170 178
-0.265037 0.067272 0.642298 171 171 179
-0.262518 0.065839 0.641663 169 169 177
-0.260549 0.063647 0.641721 169 169 177
-0.258790 0.061152 0.642050 166 167 172
-0.257619 0.057814 0.643136 165 166 171
-0.256607 0.054221 0.644441 164 165 170
-0.255122 0.051270 0.645156 165 166 171
-0.253643 0.048290 0.645889 165 166 171
-0.252065 0.045428 0.646507 165 166 171
-0.250421 0.042643 0.647050 166 167 172
-0.248232 0.040646 0.646886 165 166 171
-0.246402 0.038105 0.647201 165 166 171
-0.244537 0.035601 0.647477 164 163 169
-0.242727 0.032999 0.647834 165 164 170
-0.241004 0.030245 0.648317 164 163 169
-0.239053 0.027825 0.648502 163 162 168
-0.237295 0.025090 0.648957 165 164 170
-0.235693 0.022090 0.649633 163 162 168
-0.234390 0.018590 0.650731 163 162 168
-0.233159 0.014941 0.651945 164 163 168
-0.231612 0.011769 0.652740 163 162 167
-0.230039 0.008611 0.653514 160 159 164
-0.227819 0.006492 0.653397 156 155 160
-0.225880 0.003898 0.653679 163 162 167
-0.224147 0.000940 0.654263 161 160 166
-0.222664 -0.002462 0.655211 161 160 165
-0.220855 -0.005341 0.655712 159 158 163
-0.218805 -0.007825 0.655877 160 161 165
-0.216798 -0.010402 0.656113 158 159 163
-0.214525 -0.012526 0.655970 136 136 138
-0.212208 -0.014581 0.655767 148 146 147
-0.210116 -0.017046 0.655899 145 144 140
-0.208119 -0.019697 0.656179 144 143 139
-0.205960 -0.022071 0.656228 147 146 142
-0.203886 -0.024613 0.656409 145 144 140
-0.201836 -0.027217 0.656636 146 145 141
-0.199542 -0.029382 0.656503 146 145 141
-0.197503 -0.032037 0.656762 146 145 141
-0.195830 -0.035411 0.657592 146 145 141
-0.194343 -0.039175 0.658726 146 145 141
-0.192733 -0.042738 0.659690 146 145 140
-0.191115 -0.046325 0.660661 148 144 141
-0.189622 -0.050195 0.661846 147 143 140
-0.188303 -0.054456 0.663329 147 143 140
-0.187054 -0.058908 0.664949 148 144 141
-0.185586 -0.062968 0.666246 147 143 140
-0.184121 -0.067080 0.667572 152 148 149
-0.182331 -0.070563 0.668395 166 161 167
-0.180277 -0.073525 0.668804 169 164 170
-0.178277 -0.076627 0.669316 167 162 168
-0.176263 -0.079725 0.669818 169 164 170
-0.174312 -0.082989 0.670441 171 166 172
-0.172454 -0.086486 0.671233 172 167 173
-0.170770 -0.090406 0.672341 172 167 173
-0.169252 -0.094744 0.673755 169 164 170
-0.167307 -0.098168 0.674463 171 166 172
-0.165135 -0.101109 0.674798 172 167 174
-0.163075 -0.104331 0.675338 175 168 175
-0.161192 -0.108001 0.676207 179 170 175
-0.159480 -0.112112 0.677398 181 168 175
-0.157819 -0.116397 0.678706 184 171 180
-0.155877 -0.120056 0.679537 177 172 176
-0.153986 -0.123882 0.680483 182 181 177
-0.152224 -0.128070 0.681686 146 128 124
-0.150277 -0.131848 0.682576 163 144 140
-0.148193 -0.135327 0.683236 142 123 127
-0.146227 -0.139142 0.684135 69 50 54
-0.144389 -0.143333 0.685298 62 53 58
-0.142647 -0.147829 0.686672 109 97 97
-0.140757 -0.151993 0.687792 96 81 84
-0.138734 -0.155856 0.688685 115 107 104
-0.136634 -0.159562 0.689454 134 126 123
-0.134664 -0.163664 0.690499 166 154 154
-0.132679 -0.167775 0.691540 157 143 143
-0.130753 -0.172107 0.692729 156 142 142
-0.128959 -0.176873 0.694213 115 101 101
-0.126834 -0.180759 0.695062 147 133 133
-0.124457 -0.183964 0.695421 158 144 144
-0.122160 -0.187434 0.695960 156 142 142
-0.119935 -0.191158 0.696670 151 137 137
-0.117776 -0.195126 0.697543 124 108 109
-0.115647 -0.199239 0.698507 145 131 131
-0.113499 -0.203350 0.699459 191 177 176
-0.111290 -0.207323 0.700307 189 173 173
-0.109103 -0.211422 0.701232 189 173 173
-0.106557 -0.214428 0.701396 188 174 173
-0.103799 -0.216772 0.701102 186 175 173
-0.101240 -0.219783 0.701261 155 147 144
-0.098699 -0.222885 0.701477 155 146 141
-0.096577 -0.227427 0.702666 156 145 141
-0.094302 -0.231522 0.703541 157 146 144
-0.091730 -0.234643 0.703750 157 146 144
-0.089320 -0.238368 0.704360 158 148 146
-0.086792 -0.241723 0.704714 158 148 146
-0.084410 -0.245643 0.705440 157 147 145
-0.082061 -0.249740 0.706276 156 148 145
-0.080067 -0.255218 0.708019 156 148 145
-0.077691 -0.259358 0.708862 156 148 145
-0.075376 -0.263794 0.709891 156 148 145
-0.072968 -0.267946 0.710723 153 148 144
-0.070287 -0.271085 0.710881 152 147 143
-0.067732 -0.274763 0.711388 154 149 145
-0.065078 -0.278090 0.711659 152 147 143
-0.063050 -0.284040 0.713627 150 147 142
-0.060596 -0.288325 0.714503 149 146 141
-0.058074 -0.292401 0.715233 146 145 140
-0.055552 -0.296539 0.715995 146 145 140
-0.052780 -0.299646 0.716087 146 145 140
-0.050190 -0.303607 0.716721 145 144 139
-0.047638 -0.307799 0.717495 144 145 139
-0.045118 -0.312218 0.718403 144 145 139
-0.042367 -0.315629 0.718664 144 145 139
-0.039806 -0.319997 0.719524 144 145 139
-0.037184 -0.324149 0.720239 144 145 139
-0.034608 -0.328605 0.721136 144 145 139
-0.031840 -0.332182 0.721474 144 145 139
-0.029110 -0.336009 0.721962 144 147 140
-0.026327 -0.339624 0.722311 144 147 140
-0.023457 -0.342834 0.722403 146 147 141
-0.020752 -0.346982 0.723071 145 146 140
-0.017888 -0.350336 0.723240 145 146 140
-0.015265 -0.355093 0.724268 145 146 140
-0.012496 -0.359119 0.724837 146 147 141
-0.009849 -0.363939 0.725884 146 147 141
-0.006790 -0.366409 0.725490 145 148 141
-0.003736 -0.368930 0.725126 146 149 142
-0.000931 -0.373020 0.725708 147 150 143
0.001883 -0.377134 0.726299 149 152 145
0.004431 -0.383070 0.727976 149 152 145
0.008552 -0.378737 0.723486 152 154 149
0.042363 -1.056778 1.055582 72 74 73
0.047408 -1.058609 1.053774 74 76 75
0.053059 -1.050985 1.046745 74 76 75
0.058360 -1.047958 1.042286 73 75 74
0.063558 -1.046030 1.038451 67 69 68
0.068580 -1.046689 1.036049 66 68 67
0.073570 -1.047652 1.033821 63 64 66
0.078441 -1.050736 1.032756 61 62 64
0.083238 -1.055357 1.032525 62 63 65
0.088433 -1.051180 1.027529 61 62 64
0.093243 -1.055271 1.027017 61 62 64
0.098406 -1.050323 1.021639 60 61 63
0.103209 -1.054139 1.020989 58 59 63
0.108097 -1.055470 1.019008 58 59 63
0.112919 -1.058666 1.018027 59 60 64
0.117803 -1.059548 1.015816 56 57 61
0.122684 -1.060030 1.013400 55 56 60
-0.370008 0.265109 0.600369 146 153 161
-0.368074 0.263659 0.600064 145 152 160
-0.366569 0.261892 0.600159 145 152 160
-0.364816 0.260304 0.600024 145 152 160
-0.364165 0.257891 0.600924 144 151 159
-0.362754 0.256032 0.601118 147 152 158
-0.362443 0.253335 0.602353 148 153 159
-0.360940 0.251525 0.602472 147 152 158
-0.359446 0.249703 0.602601 148 153 159
-0.357525 0.248204 0.602328 148 153 159
-0.355556 0.246741 0.602010 150 153 160
-0.353995 0.244957 0.602083 150 153 160
-0.352451 0.243152 0.602176 149 152 159
-0.351650 0.240750 0.602988 149 152 159
-0.349739 0.239223 0.602735 149 152 157
-0.348008 0.237549 0.602657 149 152 157
-0.346767 0.235471 0.603059 149 152 157
-0.345329 0.233545 0.603274 149 152 157
-0.344747 0.230902 0.604332 149 152 157
-0.343544 0.228759 0.604788 149 152 157
-0.341830 0.227033 0.604747 149 152 157
-0.340916 0.224625 0.605500 148 153 157
-0.340494 0.221784 0.606749 148 153 157
-0.339496 0.219415 0.607436 150 155 159
-0.338351 0.217159 0.607983 149 154 158
-0.337588 0.214558 0.608920 148 153 157
-0.336181 0.212504 0.609218 147 152 156
-0.336245 0.209139 0.611006 149 154 158
-0.335004 0.206907 0.611488 149 154 158
-0.333700 0.204720 0.611913 150 155 159
-0.331984 0.202894 0.611923 149 152 157
-0.330624 0.200737 0.612300 149 153 156
-0.329338 0.198502 0.612759 150 154 157
-0.328207 0.196111 0.613384 150 154 157
-0.326533 0.194212 0.613455 151 155 158
-0.325507 0.191697 0.614202 151 155 158
-0.324308 0.189329 0.614779 150 154 157
-0.323782 0.186305 0.616066 149 153 156
-0.323167 0.183343 0.617272 149 153 156
-0.322073 0.180822 0.617985 149 153 156
-0.320750 0.178508 0.618465 149 153 156
-0.320332 0.175291 0.619912 150 154 157
-0.318995 0.172957 0.620395 149 153 154
-0.317714 0.170554 0.620943 149 153 154
-0.316091 0.168481 0.621133 151 152 154
-0.314222 0.166647 0.621063 152 153 155
-0.313143 0.164002 0.621849 152 153 155
-0.312300 0.161096 0.622901 153 154 156
-0.310984 0.158657 0.623450 153 154 156
-0.310132 0.155718 0.624514 154 155 157
-0.309787 0.152224 0.626145 154 155 159
-0.308991 0.149176 0.627297 155 156 160
-0.308332 0.145958 0.628612 155 156 158
-0.307407 0.142999 0.629646 155 159 158
-0.306476 0.140025 0.630685 159 161 160
-0.306374 0.136120 0.632664 168 168 166
-0.305436 0.133100 0.633723 81 80 76
-0.304187 0.130402 0.634444 133 132 128
-0.302819 0.127819 0.635039 83 81 82
-0.301598 0.125054 0.635809 141 140 138
-0.300078 0.122609 0.636250 87 87 85
-0.298482 0.120237 0.636610 44 44 42
-0.297132 0.117568 0.637259 71 71 71
-0.295730 0.114940 0.637860 136 136 136
-0.294183 0.112466 0.638300 160 160 162
-0.292488 0.110153 0.638575 34 33 38
-0.290807 0.107811 0.638873 168 169 171
-0.288958 0.105658 0.638980 110 111 113
-0.287126 0.103476 0.639111 58 58 58
-0.284852 0.101824 0.638724 154 154 154
-0.283342 0.099228 0.639248 51 51 51
-0.281858 0.096583 0.639813 88 88 88
-0.280227 0.094104 0.640209 23 23 25
-0.278631 0.091566 0.640656 76 76 78
-0.277024 0.089026 0.641097 181 182 186
-0.275420 0.086466 0.641552 147 139 136
-0.274083 0.083545 0.642340 54 39 36
-0.272771 0.080567 0.643172 47 37 36
-0.271171 0.077947 0.643658 157 155 166
-0.269537 0.075354 0.644114 175 178 187
-0.268390 0.072093 0.645183 175 175 185
-0.266376 0.069974 0.645182 172 171 179
-0.264228 0.068029 0.645017 170 170 178
-0.261676 0.066634 0.644343 171 171 179
-0.259748 0.064378 0.644460 169 169 177
-0.258066 0.061766 0.644898 167 168 173
-0.256907 0.058401 0.646016 167 168 173
-0.255824 0.054897 0.647248 165 166 171
-0.254275 0.052028 0.647893 167 168 173
-0.252684 0.049200 0.648493 166 167 172
-0.251139 0.046282 0.649166 166 167 172
-0.249540 0.043423 0.649778 166 167 172
-0.247377 0.041378 0.649657 165 166 171
-0.245538 0.038841 0.649969 163 164 169
-0.243638 0.036380 0.650209 163 162 168
-0.241836 0.033756 0.650587 162 161 167
-0.240031 0.031119 0.650971 164 163 169
-0.238033 0.028763 0.651103 163 162 168
-0.236261 0.026042 0.651548 163 162 168
-0.234549 0.023206 0.652086 161 160 166
-0.233057 0.019999 0.652939 163 162 167
-0.231737 0.016488 0.654044 161 160 165
-0.230141 0.013390 0.654782 163 162 167
-0.228501 0.010339 0.655472 161 160 165
-0.226434 0.007966 0.655574 164 163 168
-0.224610 0.005178 0.656026 163 162 167
-0.222876 0.002216 0.656618 162 161 167
-0.221300 -0.001036 0.657448 160 159 164
-0.219477 -0.003896 0.657938 159 158 163
-0.217394 -0.006329 0.658062 160 161 165
-0.215272 -0.008708 0.658138 159 160 164
-0.212996 -0.010829 0.657993 138 138 140
-0.210767 -0.013043 0.657924 150 148 149
-0.208753 -0.015650 0.658177 144 143 139
-0.206773 -0.018337 0.658491 146 145 141
-0.204682 -0.020840 0.658648 145 144 140
-0.202688 -0.023537 0.658959 145 144 140
-0.200690 -0.026246 0.659274 147 146 142
-0.198444 -0.028511 0.659222 146 145 141
-0.196395 -0.031157 0.659476 146 145 141
-0.194712 -0.034523 0.660306 147 146 142
-0.193202 -0.038255 0.661422 146 145 141
-0.191449 -0.041553 0.662179 145 144 139
-0.189850 -0.045186 0.663194 148 144 141
-0.188354 -0.049062 0.664394 146 142 139
-0.187125 -0.053516 0.666040 147 143 140
-0.185928 -0.058088 0.667765 147 143 140
-0.184459 -0.062162 0.669082 146 142 139
-0.182961 -0.066223 0.670377 152 148 149
-0.181156 -0.069688 0.671192 165 160 166
-0.179193 -0.072853 0.671764 167 162 168
-0.177264 -0.076122 0.672408 166 161 167
-0.175226 -0.079186 0.672887 169 164 170
-0.173257 -0.082428 0.673496 170 165 171
-0.171392 -0.085928 0.674296 172 167 173
-0.169651 -0.089741 0.675327 171 166 172
-0.168115 -0.094056 0.676733 170 165 171
-0.166198 -0.097563 0.677508 172 167 173
-0.164070 -0.100621 0.677934 169 168 174
-0.162074 -0.104010 0.678605 170 169 174
-0.160253 -0.107847 0.679605 172 172 174
-0.158534 -0.111966 0.680808 174 172 177
-0.156890 -0.116319 0.682174 178 171 179
-0.155052 -0.120256 0.683217 180 174 178
-0.153241 -0.124306 0.684333 200 178 180
-0.151543 -0.128685 0.685684 135 76 80
-0.149545 -0.132371 0.686508 158 117 121
-0.147356 -0.135617 0.686999 124 102 105
-0.145438 -0.139588 0.688015 68 49 53
-0.143615 -0.143850 0.689235 61 55 57
-0.141855 -0.148336 0.690607 135 125 124
-0.140029 -0.152708 0.691884 161 151 150
-0.138009 -0.156616 0.692811 132 124 121
-0.135882 -0.160286 0.693556 138 126 126
-0.133811 -0.164151 0.694434 158 144 144
-0.131725 -0.168023 0.695307 158 144 144
-0.129694 -0.172093 0.696313 155 141 141
-0.127883 -0.176845 0.697796 164 150 150
-0.125760 -0.180768 0.698675 95 81 81
-0.123373 -0.183973 0.699035 78 64 64
-0.121046 -0.187387 0.699537 149 135 135
-0.118672 -0.190700 0.699961 193 179 179
-0.116381 -0.194298 0.700578 195 179 180
-0.114131 -0.198064 0.701305 184 168 169
-0.111982 -0.202192 0.702278 190 176 175
-0.109728 -0.206046 0.703049 192 176 176
-0.107525 -0.210111 0.703958 189 173 173
-0.104956 -0.213057 0.704083 185 171 170
-0.102179 -0.215352 0.703755 183 172 170
-0.099617 -0.218368 0.703921 171 163 160
-0.097246 -0.222050 0.704538 153 144 139
-0.095375 -0.227475 0.706339 156 145 141
-0.093073 -0.231513 0.707179 156 145 143
-0.090400 -0.234317 0.707173 157 146 144
-0.087894 -0.237737 0.707580 157 147 145
-0.085286 -0.240830 0.707761 157 147 145
-0.082891 -0.244730 0.708479 157 147 145
-0.080540 -0.248850 0.709335 156 148 145
-0.078450 -0.254006 0.710876 155 147 144
-0.076022 -0.257973 0.711610 154 149 145
-0.073722 -0.262494 0.712704 152 147 143
-0.071350 -0.266806 0.713649 152 147 143
-0.068748 -0.270280 0.714032 151 146 142
-0.066322 -0.274504 0.714901 151 148 143
-0.063719 -0.278077 0.715334 149 146 141
-0.061761 -0.284377 0.717543 150 147 142
-0.059328 -0.288808 0.718517 146 145 140
-0.056870 -0.293205 0.719459 146 145 140
-0.054372 -0.297510 0.720331 146 145 140
-0.051578 -0.300581 0.720398 145 144 139
-0.049031 -0.304796 0.721197 145 144 139
-0.046453 -0.308946 0.721945 144 145 139
-0.043878 -0.313176 0.722736 145 146 140
-0.041108 -0.316565 0.722982 144 145 139
-0.038491 -0.320735 0.723719 144 145 139
-0.035798 -0.324604 0.724257 144 145 139
-0.033223 -0.329129 0.725202 144 145 139
-0.030463 -0.332808 0.725604 144 147 140
-0.027688 -0.336466 0.725987 142 145 138
-0.024844 -0.339824 0.726177 142 145 138
-0.021944 -0.342931 0.726204 144 145 139
-0.019214 -0.347005 0.726829 144 145 139
-0.016359 -0.350457 0.727060 144 145 139
-0.013725 -0.355221 0.728098 145 146 140
-0.010910 -0.359048 0.728547 145 146 140
-0.008060 -0.362738 0.728906 145 146 140
-0.004970 -0.365052 0.728416 145 148 141
-0.002010 -0.368174 0.728418 146 149 142
0.000896 -0.371678 0.728650 148 151 144
0.003557 -0.376817 0.729867 149 152 145
0.006357 -0.381175 0.730601 149 152 145
0.009846 -0.381022 0.728607 147 149 146
0.040636 -1.048425 1.059503 59 60 62
0.045689 -1.050108 1.057607 59 61 60
0.050978 -1.048081 1.053648 61 63 62
0.056404 -1.043384 1.048223 67 69 68
0.061751 -1.039197 1.043106 69 71 70
0.066940 -1.037011 1.039119 69 70 72
0.071935 -1.037770 1.036773 64 65 67
0.076866 -1.039503 1.034970 62 64 63
0.081757 -1.041871 1.033520 66 68 67
0.086600 -1.045190 1.032591 68 69 71
0.091756 -1.041179 1.027671 62 63 65
0.096569 -1.044753 1.026893 61 62 64
0.101669 -1.040565 1.021911 59 60 62
0.106446 -1.044657 1.021422 59 60 62
0.111267 -1.047489 1.020252 58 59 61
0.116077 -1.050615 1.019241 56 57 59
0.120922 -1.052387 1.017506 58 59 61
0.125860 -1.049580 1.013332 58 59 61
-0.371920 0.272751 0.600462 146 153 161
-0.370961 0.270624 0.601050 145 152 160
-0.370297 0.268275 0.601917 145 152 160
-0.368921 0.266425 0.602130 146 153 161
-0.366984 0.264976 0.601823 146 153 161
-0.365568 0.263145 0.602004 146 153 161
-0.364024 0.261399 0.602069 146 153 161
-0.363350 0.259002 0.602956 145 152 160
-0.361924 0.257153 0.603141 148 153 159
-0.361732 0.254365 0.604499 148 153 159
-0.359954 0.252763 0.604360 148 153 159
-0.358559 0.250863 0.604589 148 153 159
-0.356588 0.249401 0.604270 148 153 157
-0.354696 0.247875 0.604027 149 152 159
-0.353411 0.245872 0.604371 150 153 160
-0.351758 0.244150 0.604363 149 152 159
-0.350687 0.241960 0.604923 150 153 160
-0.348942 0.240298 0.604834 149 152 157
-0.347541 0.238355 0.605082 149 152 157
-0.346484 0.236123 0.605671 149 152 157
-0.345160 0.234097 0.606005 152 153 158
-0.344545 0.231477 0.607042 150 153 158
