-0.024651 0.228081 0.818401 237 197 197
-0.021597 0.228532 0.818228 192 183 178
-0.018838 0.229469 0.817587 216 209 203
-0.016032 0.230323 0.817025 220 212 209
-0.013168 0.231081 0.816555 228 220 217
-0.010270 0.231785 0.816139 225 221 212
-0.007123 0.232094 0.816102 226 223 216
-0.004029 0.232493 0.815980 179 177 178
-0.001366 0.233564 0.815208 117 116 122
0.001472 0.234357 0.814704 153 142 140
0.004249 0.235243 0.814111 207 178 148
0.007441 0.235499 0.814127 207 165 125
0.010955 0.235281 0.814601 205 155 104
0.014089 0.235643 0.814516 180 157 123
0.017222 0.236009 0.814427 168 152 116
0.019995 0.236905 0.813824 151 146 108
0.023097 0.237323 0.813684 155 150 112
0.026602 0.237170 0.814099 167 161 127
0.030052 0.237108 0.814426 155 151 122
0.033200 0.237483 0.814330 149 145 120
0.036710 0.237359 0.814718 229 222 204
0.040022 0.237521 0.814829 228 220 207
0.043131 0.237969 0.814662 226 221 215
0.046184 0.238498 0.814418 197 199 198
0.049037 0.239297 0.813910 123 127 126
0.051977 0.239978 0.813517 150 145 139
0.054764 0.240862 0.812927 229 230 214
0.057771 0.241454 0.812620 108 95 76
0.060591 0.242289 0.812077 120 102 92
0.063498 0.243010 0.811645 168 131 104
0.066446 0.243677 0.811266 231 201 151
0.069579 0.244109 0.811116 162 144 98
0.072897 0.244313 0.811189 166 152 107
0.076444 0.244237 0.811537 175 167 118
0.079936 0.244241 0.811806 164 159 104
0.083425 0.244260 0.812063 155 147 100
0.086603 0.244668 0.811938 162 151 106
0.090102 0.244691 0.812191 159 152 106
0.093589 0.244738 0.812421 151 145 113
0.097153 0.244704 0.812732 160 151 122
0.100247 0.245236 0.812487 169 160 131
0.103527 0.245552 0.812455 182 175 149
0.106438 0.246303 0.811995 187 180 162
0.110302 0.245951 0.812620 179 173 161
0.113904 0.245915 0.812936 173 167 155
0.117136 0.246311 0.812826 173 165 154
0.120341 0.246742 0.812683 207 197 185
0.122497 0.248355 0.811376 233 223 211
0.125342 0.249185 0.810839 236 226 217
0.128046 0.250170 0.810150 152 143 136
0.130304 0.251640 0.808981 150 144 128
0.132431 0.253242 0.807682 185 141 106
0.134663 0.254716 0.806508 216 151 119
0.137192 0.255860 0.805659 158 130 116
0.140899 0.255739 0.806060 136 129 123
0.143778 0.256508 0.805582 134 127 119
0.146455 0.257487 0.804896 131 126 123
0.148556 0.259064 0.803617 124 120 119
0.151163 0.260104 0.802870 126 122 119
0.153606 0.261307 0.801960 126 121 117
0.156342 0.262203 0.801355 128 123 117
0.160078 0.262079 0.801761 194 187 179
0.163214 0.262572 0.801556 178 171 161
0.166632 0.262784 0.801629 219 210 201
0.169477 0.263574 0.801129 214 207 197
0.172812 0.263877 0.801113 213 206 196
0.175550 0.264772 0.800509 213 206 196
0.178590 0.265369 0.800201 211 204 194
0.182291 0.265326 0.800530 213 204 195
0.185339 0.265921 0.800224 212 203 194
0.188901 0.266026 0.800407 217 209 198
0.190182 0.268305 0.798422 213 205 194
0.193201 0.268923 0.798093 208 199 190
0.196251 0.269512 0.797792 242 234 223
0.200026 0.269428 0.798166 234 226 215
0.205125 0.268127 0.799756 233 225 214
0.208593 0.268352 0.799821 231 223 212
0.214394 0.266450 0.802016 230 221 212
0.216307 0.268112 0.800645 229 220 211
-0.497005 0.279490 0.737428 11 10 15
-0.494878 0.279649 0.737451 10 9 14
-0.493626 0.276282 0.740654 10 9 14
-0.491414 0.276706 0.740440 10 9 14
-0.489515 0.275830 0.741398 11 10 15
-0.487287 0.276291 0.741151 10 9 14
-0.485474 0.274973 0.742511 11 10 15
-0.483307 0.275134 0.742535 11 10 15
-0.481290 0.274617 0.743172 12 10 15
-0.479306 0.273912 0.743980 11 9 14
-0.477104 0.274165 0.743922 12 10 15
-0.474980 0.274044 0.744203 12 10 15
-0.472939 0.273496 0.744871 13 10 17
-0.470844 0.273174 0.745335 13 10 17
-0.468658 0.273269 0.745422 16 13 20
-0.466545 0.272978 0.745858 18 15 24
-0.464418 0.272720 0.746266 16 13 20
-0.462141 0.273233 0.745975 21 18 25
-0.459895 0.273572 0.745842 17 14 21
-0.457606 0.274147 0.745494 15 12 19
-0.455474 0.273825 0.745961 14 11 18
-0.453473 0.272692 0.747165 13 10 17
-0.451333 0.272309 0.747688 13 10 17
-0.449194 0.271875 0.748259 13 10 17
-0.447025 0.271581 0.748703 12 10 15
-0.444961 0.270560 0.749809 12 11 16
-0.442951 0.269086 0.751327 12 11 16
-0.440810 0.268400 0.752130 12 11 17
-0.438628 0.267929 0.752738 12 11 17
-0.436484 0.267120 0.753655 12 11 17
-0.434300 0.266523 0.754378 11 10 16
-0.432147 0.265615 0.755387 12 11 17
-0.429981 0.264712 0.756392 12 11 17
-0.427776 0.264026 0.757200 13 12 18
-0.425554 0.263405 0.757950 14 13 19
-0.423261 0.263331 0.758201 15 14 20
-0.420983 0.263067 0.758625 15 14 20
-0.418672 0.263056 0.758821 15 14 20
-0.416463 0.261954 0.760012 14 13 19
-0.414205 0.261220 0.760868 14 13 19
-0.411930 0.260557 0.761661 15 14 20
-0.409651 0.259814 0.762527 14 13 19
-0.407374 0.258911 0.763541 14 13 19
-0.405128 0.257413 0.765100 13 12 18
-0.402827 0.256456 0.766166 14 13 19
-0.400458 0.256308 0.766491 13 12 18
-0.398083 0.256158 0.766819 13 12 18
-0.395721 0.255690 0.767438 13 12 18
-0.393329 0.255599 0.767713 13 12 18
-0.390992 0.254271 0.769123 12 11 17
-0.388572 0.254429 0.769171 12 11 17
-0.386140 0.254812 0.769012 12 11 17
-0.383750 0.253970 0.769979 14 12 17
-0.381349 0.253083 0.770987 10 9 14
-0.378953 0.251500 0.772637 11 12 17
-0.376532 0.250191 0.774036 9 12 19
-0.374097 0.248707 0.775598 74 91 107
-0.371635 0.247872 0.776563 88 113 135
-0.369163 0.246793 0.777755 99 126 153
-0.366671 0.246870 0.777883 102 133 161
-0.364175 0.246483 0.778439 108 138 166
-0.361668 0.245879 0.779195 115 142 171
-0.359151 0.245235 0.779989 117 147 175
-0.356627 0.244879 0.780519 117 147 175
-0.354090 0.244316 0.781240 119 144 174
-0.351543 0.243787 0.781930 119 144 175
-0.348972 0.242713 0.783125 116 143 172
-0.346384 0.241605 0.784353 115 145 173
-0.343784 0.240597 0.785489 115 145 173
-0.341148 0.239088 0.787090 114 144 172
-0.338506 0.237845 0.788446 115 142 169
-0.335832 0.236330 0.790055 117 144 171
-0.333145 0.234927 0.791562 114 141 162
-0.330449 0.233673 0.792933 115 142 169
-0.327753 0.232686 0.794057 117 145 169
-0.325010 0.231232 0.795616 115 140 162
-0.322286 0.230297 0.796695 116 143 170
-0.319561 0.229536 0.797614 114 144 170
-0.316831 0.228868 0.798447 120 147 168
-0.314148 0.228856 0.798672 118 144 169
-0.311418 0.228401 0.799309 120 144 168
-0.308625 0.227409 0.800446 120 146 169
-0.305670 0.224995 0.802906 117 142 164
-0.302730 0.222990 0.804988 127 141 154
-0.299758 0.220916 0.807136 3 7 16
-0.296579 0.217296 0.810725 9 12 19
-0.293264 0.212906 0.815034 15 18 25
-0.276608 0.152752 0.871793 64 62 63
-0.273958 0.156029 0.868984 101 98 93
-0.270862 0.156093 0.869172 173 169 158
-0.267766 0.156187 0.869333 188 182 168
-0.264687 0.156434 0.869351 192 184 171
-0.261686 0.157187 0.868896 193 185 174
-0.258790 0.158570 0.867853 191 182 173
-0.255886 0.159871 0.866886 194 186 175
-0.253016 0.161325 0.865775 193 185 174
-0.250050 0.162206 0.865200 195 187 176
-0.247102 0.163172 0.864545 195 187 176
-0.244191 0.164317 0.863722 196 188 177
-0.241214 0.165106 0.863232 197 189 178
-0.238234 0.165871 0.862765 197 189 178
-0.235334 0.167019 0.861939 201 193 182
-0.232431 0.168132 0.861145 201 193 180
-0.229492 0.169058 0.860526 199 191 178
-0.226574 0.170071 0.859825 200 192 179
-0.223632 0.170956 0.859244 200 192 179
-0.220755 0.172121 0.858400 201 193 180
-0.217889 0.173308 0.857535 201 193 180
-0.214904 0.173977 0.857157 202 194 181
-0.211855 0.174389 0.857021 202 194 181
-0.208803 0.174799 0.856887 203 193 181
-0.205743 0.175186 0.856774 202 194 181
-0.202575 0.175172 0.857039 204 196 183
-0.199379 0.175080 0.857379 203 195 182
-0.196184 0.175024 0.857686 203 195 182
-0.193023 0.175114 0.857855 203 193 181
-0.189860 0.175220 0.858010 203 193 181
-0.186777 0.175622 0.857885 201 191 179
-0.183735 0.176177 0.857616 203 193 181
-0.180648 0.176586 0.857485 204 194 182
-0.177571 0.177035 0.857317 202 192 180
-0.174512 0.177553 0.857084 203 193 181
-0.171600 0.178543 0.856404 203 195 182
-0.168745 0.179706 0.855560 203 195 182
-0.165843 0.180706 0.854870 203 195 182
-0.162899 0.181567 0.854312 204 196 183
-0.160017 0.182610 0.853581 204 196 183
-0.157168 0.183738 0.852768 204 196 183
-0.154257 0.184672 0.852140 204 196 183
-0.151463 0.185932 0.851202 203 195 182
-0.148679 0.187204 0.850252 204 196 183
-0.145937 0.188574 0.849208 205 197 184
-0.143140 0.189777 0.848323 204 196 183
-0.140411 0.191144 0.847281 205 199 185
-0.137613 0.192308 0.846431 205 197 184
-0.134706 0.193176 0.845864 205 197 184
-0.131686 0.193742 0.845583 207 199 186
-0.128593 0.194127 0.845475 206 198 185
-0.125594 0.194756 0.845134 207 199 186
-0.122724 0.195708 0.844486 206 198 185
-0.120104 0.197263 0.843262 208 200 187
-0.117355 0.198483 0.842358 207 199 186
-0.114497 0.199429 0.841714 206 198 185
-0.111561 0.200186 0.841251 207 199 186
-0.108480 0.200602 0.841113 207 199 186
-0.105571 0.201419 0.840592 207 199 186
-0.102653 0.202213 0.840094 206 198 185
-0.099503 0.202484 0.840095 207 199 186
-0.096542 0.203184 0.839687 207 199 186
-0.093604 0.203931 0.839232 206 198 185
-0.090858 0.205092 0.838382 205 197 184
-0.088155 0.206332 0.837454 208 200 187
-0.085448 0.207552 0.836547 208 200 187
-0.082715 0.208703 0.835704 207 199 186
-0.080220 0.210334 0.834400 207 199 186
-0.077583 0.211654 0.833394 207 199 186
-0.074903 0.212874 0.832484 207 199 186
-0.071844 0.213326 0.832311 203 195 182
-0.068923 0.214055 0.831872 204 196 183
-0.066443 0.215639 0.830610 189 180 171
-0.064650 0.218526 0.828093 231 222 215
-0.062521 0.220726 0.826237 237 230 224
-0.059951 0.222062 0.825210 242 235 229
-0.057416 0.223449 0.824134 196 189 181
-0.054583 0.224271 0.823603 219 212 206
-0.051643 0.224895 0.823262 227 217 215
-0.048749 0.225603 0.822841 223 219 210
-0.045920 0.226426 0.822308 214 203 197
-0.042838 0.226798 0.822212 212 201 199
-0.039775 0.227209 0.822077 177 175 180
-0.036830 0.227829 0.821740 146 159 168
-0.033923 0.228515 0.821340 152 171 175
-0.031121 0.229379 0.820767 222 191 189
-0.028394 0.230367 0.820075 178 85 77
-0.025600 0.231234 0.819498 223 186 177
-0.022565 0.231702 0.819310 205 193 181
-0.019833 0.232667 0.818638 216 208 197
-0.017009 0.233479 0.818116 219 212 206
-0.014139 0.234214 0.817667 228 220 217
-0.011264 0.234937 0.817230 224 219 213
-0.008224 0.235403 0.817044 222 219 212
-0.005240 0.235957 0.816771 202 201 199
-0.002552 0.236971 0.816051 105 112 118
0.000347 0.237657 0.815651 145 142 135
0.003172 0.238452 0.815143 220 211 196
0.006340 0.238731 0.815138 218 184 156
0.009755 0.238651 0.815485 199 169 133
0.012808 0.239116 0.815300 137 135 123
0.015950 0.239455 0.815238 199 184 145
0.018665 0.240418 0.814567 158 150 111
0.021493 0.241212 0.814061 167 161 129
0.024875 0.241218 0.814326 154 145 114
0.028271 0.241213 0.814601 166 157 126
0.031523 0.241422 0.814668 156 149 120
0.035057 0.241248 0.815110 148 142 116
0.038519 0.241187 0.815443 189 184 165
0.041738 0.241469 0.815440 226 221 215
0.044823 0.241939 0.815252 218 209 212
0.047806 0.242550 0.814928 125 124 129
0.050943 0.242955 0.814805 139 132 122
0.053787 0.243753 0.814297 226 225 205
0.056843 0.244270 0.814063 199 191 178
0.059673 0.245082 0.813541 114 99 92
0.062583 0.245790 0.813121 129 105 93
0.065469 0.246528 0.812671 195 162 121
0.068541 0.247029 0.812455 206 174 125
0.071782 0.247320 0.812445 159 138 91
0.075272 0.247307 0.812735 162 154 107
0.078754 0.247313 0.813007 165 164 108
0.082238 0.247329 0.813270 151 147 102
0.085439 0.247699 0.813185 143 135 112
0.088802 0.247878 0.813289 133 128 109
0.092154 0.248077 0.813372 165 163 151
0.095634 0.248131 0.813600 141 137 125
0.098696 0.248688 0.813331 125 118 110
0.102003 0.248960 0.813345 128 121 113
0.105026 0.249568 0.813025 128 124 115
0.108885 0.249213 0.813660 129 125 114
0.112324 0.249354 0.813805 165 161 149
0.115542 0.249754 0.813693 207 201 187
0.118899 0.250000 0.813734 191 183 172
0.121308 0.251316 0.812714 229 220 213
0.124224 0.252058 0.812262 235 225 216
0.127062 0.252884 0.811727 146 133 125
0.129348 0.254315 0.810592 150 144 128
0.131552 0.255823 0.809378 152 126 99
0.133879 0.257186 0.808308 199 158 130
0.136487 0.258237 0.807547 171 154 144
0.140003 0.258317 0.807753 138 140 139
0.142796 0.259170 0.807190 125 127 126
0.145646 0.259959 0.806691 124 124 122
0.147835 0.261437 0.805504 122 121 119
0.150328 0.262588 0.804642 118 117 113
0.152600 0.263959 0.803560 118 114 111
0.155332 0.264852 0.802955 139 134 128
0.159351 0.264438 0.803657 194 187 179
0.162423 0.264991 0.803393 180 173 163
0.165749 0.265291 0.803381 219 210 201
0.168615 0.266053 0.802908 214 207 197
0.171967 0.266336 0.802915 211 204 194
0.174679 0.267249 0.802289 210 203 193
0.177838 0.267726 0.802102 208 201 191
0.181333 0.267879 0.802240 210 201 192
0.184268 0.268577 0.801830 211 202 193
0.187765 0.268739 0.801961 212 204 193
0.189140 0.270918 0.800062 217 209 198
0.191828 0.271841 0.799426 216 207 198
0.194567 0.272713 0.798841 184 176 165
0.197962 0.272974 0.798872 239 231 220
0.203704 0.271073 0.801081 231 223 212
0.207503 0.270988 0.801463 235 227 216
0.213275 0.269115 0.803649 228 220 209
0.213571 0.272231 0.800802 228 219 210
-0.497387 0.279381 0.740592 10 11 15
-0.495232 0.279627 0.740538 10 11 15
-0.493933 0.276439 0.743602 12 11 16
-0.491761 0.276680 0.743554 11 10 15
-0.489850 0.275835 0.744493 10 9 14
-0.487627 0.276260 0.744280 11 10 15
-0.485805 0.274958 0.745636 11 9 14
-0.483641 0.275083 0.745695 12 10 15
-0.481609 0.274611 0.746298 12 10 15
-0.479634 0.273844 0.747171 11 9 14
-0.477512 0.273705 0.747472 12 10 15
-0.475385 0.273567 0.747773 12 9 16
-0.473313 0.273138 0.748338 13 10 17
-0.471186 0.272940 0.748695 17 14 21
-0.468984 0.273086 0.748739 17 14 21
-0.466863 0.272801 0.749175 15 12 19
-0.464711 0.272650 0.749490 16 13 20
-0.462400 0.273311 0.749065 14 12 17
-0.460145 0.273675 0.748910 13 11 16
-0.457847 0.274270 0.748544 13 11 16
-0.455668 0.274191 0.748794 13 11 16
-0.453643 0.273182 0.749896 13 11 16
-0.451477 0.272935 0.750300 13 11 16
-0.449335 0.272510 0.750868 13 11 16
-0.447157 0.272256 0.751281 12 11 16
-0.445064 0.271408 0.752238 12 11 16
-0.443035 0.270053 0.753660 11 10 15
-0.440911 0.269246 0.754581 11 10 15
-0.438733 0.268736 0.755231 10 9 15
-0.436604 0.267805 0.756268 12 11 17
-0.434423 0.267175 0.757030 12 11 17
-0.432265 0.266280 0.758035 13 12 18
-0.430101 0.265339 0.759084 13 12 18
-0.427899 0.264612 0.759937 14 13 19
-0.425683 0.263908 0.760770 14 13 19
-0.423392 0.263786 0.761069 14 13 19
-0.421103 0.263597 0.761431 14 13 19
-0.418784 0.263628 0.761591 14 13 19
-0.416565 0.262601 0.762723 14 13 19
-0.414288 0.262051 0.763419 14 13 19
-0.412006 0.261445 0.764167 15 14 20
-0.409724 0.260714 0.765030 14 13 19
-0.407444 0.259825 0.766040 14 13 19
-0.405196 0.258343 0.767598 14 13 19
-0.402891 0.257413 0.768648 14 13 19
-0.400520 0.257272 0.768971 13 12 18
-0.398141 0.257164 0.769265 13 12 18
-0.395780 0.256650 0.769933 13 12 18
-0.393382 0.256635 0.770141 13 12 18
-0.391036 0.255489 0.771395 13 12 18
-0.388612 0.255713 0.771384 12 11 17
-0.386191 0.255820 0.771482 12 11 17
-0.383800 0.254954 0.772480 11 10 16
-0.381394 0.254175 0.773398 11 10 16
-0.379003 0.252384 0.775254 10 9 15
-0.376580 0.251039 0.776698 11 10 16
-0.374142 0.249600 0.778231 32 44 58
-0.371679 0.248717 0.779251 85 106 125
-0.369205 0.247597 0.780491 95 121 144
-0.366711 0.247605 0.780686 102 132 158
-0.364211 0.247273 0.781197 110 137 164
-0.361702 0.246644 0.781984 116 142 169
-0.359181 0.245923 0.782858 118 145 172
-0.356652 0.245485 0.783470 117 147 173
-0.354113 0.244967 0.784156 119 146 173
-0.351564 0.244486 0.784810 120 147 174
-0.348987 0.243342 0.786081 117 147 173
-0.346389 0.242055 0.787486 116 146 174
-0.343782 0.240972 0.788702 115 142 171
-0.341141 0.239468 0.790312 118 145 174
-0.338489 0.238125 0.791774 118 144 171
-0.335801 0.236427 0.793567 119 145 172
-0.333107 0.235016 0.795095 111 141 165
-0.330409 0.233837 0.796408 116 142 165
-0.327703 0.232793 0.797596 123 145 168
-0.324950 0.231305 0.799201 121 146 166
-0.322227 0.230473 0.800194 117 135 155
-0.319512 0.229908 0.800938 131 149 163
-0.316802 0.229533 0.801506 118 141 155
-0.314110 0.229470 0.801784 119 145 168
-0.311366 0.228910 0.802526 121 146 166
-0.308556 0.227806 0.803778 120 147 168
-0.305600 0.225430 0.806223 118 140 163
-0.302658 0.223459 0.808291 127 145 159
-0.299719 0.221729 0.810135 6 15 22
-0.296636 0.218969 0.812946 9 12 17
-0.293206 0.213639 0.818170 14 14 22
-0.276905 0.156297 0.872696 38 38 40
-0.274168 0.158888 0.870514 66 65 63
-0.271122 0.159249 0.870427 128 125 118
-0.268098 0.159782 0.870177 188 184 173
-0.265039 0.160094 0.870137 192 186 174
-0.262037 0.160785 0.869740 194 186 175
-0.259155 0.162193 0.868667 196 188 177
-0.256215 0.163220 0.867953 195 187 176
-0.253431 0.165116 0.866420 195 187 176
-0.250525 0.166269 0.865587 196 188 177
-0.247616 0.167386 0.864787 195 187 176
-0.244688 0.168375 0.864106 196 188 177
-0.241683 0.168957 0.863810 199 191 180
-0.238692 0.169613 0.863445 200 192 181
-0.235803 0.170765 0.862610 201 193 182
-0.232923 0.171936 0.861757 202 194 181
-0.229982 0.172805 0.861190 200 192 179
-0.227066 0.173775 0.860527 201 193 180
-0.224127 0.174631 0.859971 201 193 180
-0.221250 0.175752 0.859165 201 193 180
-0.218394 0.176935 0.858299 202 194 181
-0.215448 0.177729 0.857802 202 194 181
-0.212435 0.178242 0.857570 203 195 182
-0.209382 0.178604 0.857482 204 194 182
-0.206372 0.179146 0.857224 203 193 181
-0.203219 0.179148 0.857479 202 194 181
-0.200047 0.179103 0.857778 203 195 182
-0.196948 0.179357 0.857794 203 195 182
-0.193826 0.179539 0.857879 202 194 181
-0.190685 0.179672 0.858011 203 193 181
-0.187658 0.180222 0.857746 202 192 180
-0.184709 0.181044 0.857223 204 194 182
-0.181631 0.181428 0.857117 202 192 180
-0.178436 0.181436 0.857369 201 191 179
-0.175400 0.181981 0.857109 202 192 180
-0.172476 0.182890 0.856503 201 193 180
-0.169651 0.184099 0.855612 202 194 181
-0.166767 0.185109 0.854908 203 195 182
-0.163849 0.186006 0.854313 204 196 183
-0.160956 0.186971 0.853653 204 196 183
-0.158085 0.187992 0.852939 204 196 183
-0.155202 0.188967 0.852268 204 196 183
-0.152362 0.190057 0.851487 202 194 181
-0.149587 0.191314 0.850546 205 197 184
-0.146852 0.192667 0.849513 204 196 183
-0.144061 0.193848 0.848644 205 197 184
-0.141348 0.195223 0.847589 205 197 184
-0.138527 0.196291 0.846827 204 196 183
-0.135680 0.197280 0.846140 207 199 186
-0.132703 0.197928 0.845781 205 197 184
-0.129633 0.198336 0.845652 206 198 185
-0.126650 0.198971 0.845305 207 199 186
-0.123752 0.199820 0.844753 207 199 186
-0.121091 0.201239 0.843652 208 200 187
-0.118332 0.202403 0.842797 207 199 186
-0.115491 0.203358 0.842140 207 199 186
-0.112629 0.204260 0.841536 206 198 185
-0.109550 0.204652 0.841423 206 198 185
-0.106608 0.205363 0.841002 207 199 186
-0.103750 0.206262 0.840400 207 199 186
-0.100521 0.206330 0.840599 207 199 186
-0.097530 0.206936 0.840279 206 198 185
-0.094577 0.207626 0.839879 206 198 185
-0.091828 0.208756 0.839055 207 199 186
-0.089100 0.209917 0.838198 207 199 186
-0.086442 0.211216 0.837209 207 199 186
-0.083730 0.212387 0.836343 208 200 187
-0.081086 0.213687 0.835352 207 199 186
-0.078327 0.214736 0.834602 207 199 186
-0.075677 0.215999 0.833646 207 199 186
-0.072731 0.216660 0.833272 205 197 184
-0.069816 0.217382 0.832839 203 195 182
-0.066971 0.218237 0.832276 201 193 182
-0.065249 0.221245 0.829625 186 177 170
-0.063415 0.223987 0.827230 234 227 221
-0.060994 0.225583 0.825946 236 229 221
-0.058512 0.227048 0.824788 167 160 152
-0.055732 0.227945 0.824182 224 215 210
-0.052682 0.228348 0.824055 222 212 210
-0.049808 0.229072 0.823617 221 219 207
-0.047074 0.230045 0.822936 227 218 211
-0.044046 0.230494 0.822766 206 201 195
-0.040997 0.230909 0.822629 212 207 203
-0.038114 0.231615 0.822207 202 202 200
-0.035290 0.232424 0.821686 172 175 180
-0.032353 0.233037 0.821356 176 167 172
-0.029643 0.234030 0.820654 213 189 187
-0.026854 0.234886 0.820087 224 209 206
-0.023945 0.235542 0.819715 214 205 198
-0.021235 0.236522 0.819025 218 211 201
-0.018408 0.237306 0.818527 221 214 208
-0.015539 0.238020 0.818098 227 220 214
-0.012573 0.238581 0.817819 224 220 211
-0.009589 0.239115 0.817566 224 221 216
-0.006624 0.239681 0.817281 204 204 206
-0.003785 0.240442 0.816805 111 111 123
-0.000823 0.241015 0.816514 146 137 138
0.001890 0.241964 0.815854 221 218 203
0.005120 0.242135 0.815958 224 215 198
0.008462 0.242146 0.816219 225 213 191
0.011407 0.242756 0.815892 162 154 141
0.014501 0.243147 0.815780 114 108 96
0.017075 0.244294 0.814925 165 155 130
0.019812 0.245200 0.814307 173 161 121
0.023155 0.245242 0.814540 179 164 123
0.026511 0.245276 0.814780 153 138 105
0.029792 0.245425 0.814909 180 170 143
0.033361 0.245185 0.815422 141 143 121
0.036771 0.245177 0.815706 127 135 120
0.039934 0.245517 0.815647 152 158 148
0.043219 0.245698 0.815746 223 222 218
0.046528 0.245854 0.815870 143 139 138
0.049868 0.245979 0.816025 184 171 163
0.052925 0.246483 0.815806 231 221 209
0.056049 0.246904 0.815669 222 213 206
0.058966 0.247597 0.815263 208 195 186
0.061964 0.248183 0.814962 112 99 90
0.064786 0.248996 0.814437 179 144 102
0.067725 0.249659 0.814062 229 184 125
0.070887 0.250043 0.813962 228 193 135
0.074387 0.250010 0.814276 160 140 90
0.077835 0.250054 0.814516 167 160 108
0.081230 0.250171 0.814683 175 168 124
0.084474 0.250480 0.814660 120 112 91
0.087822 0.250670 0.814756 127 124 115
0.091026 0.251039 0.814673 120 121 113
0.094348 0.251273 0.814726 125 123 110
0.097529 0.251679 0.814607 128 126 114
0.100915 0.251850 0.814724 130 128 116
0.103965 0.252418 0.814445 133 131 119
0.107613 0.252299 0.814851 129 127 114
0.111014 0.252474 0.814965 129 126 111
0.114314 0.252771 0.814957 217 211 195
0.117687 0.252992 0.815026 194 188 172
0.120396 0.253960 0.814348 238 232 220
0.123392 0.254606 0.813992 229 220 211
0.126452 0.255182 0.813706 219 206 198
0.128794 0.256544 0.812633 146 144 129
0.131168 0.257861 0.811603 147 142 120
0.133484 0.259231 0.810521 138 122 99
0.136098 0.260272 0.809767 159 152 142
0.139707 0.260253 0.810078 134 134 132
0.142515 0.261087 0.809532 140 142 139
0.145494 0.261739 0.809169 163 162 158
0.147957 0.262928 0.808265 185 181 178
0.150466 0.264063 0.807416 194 191 186
0.152500 0.265678 0.806083 208 203 199
0.155045 0.266760 0.805286 197 192 186
0.159001 0.266410 0.805932 181 174 166
0.162123 0.266911 0.805721 181 174 164
0.165282 0.267378 0.805544 212 205 195
0.167848 0.268434 0.804773 212 205 195
0.171176 0.268736 0.804763 208 201 191
0.173783 0.269746 0.804037 208 201 191
0.176804 0.270351 0.803721 208 201 191
0.180267 0.270531 0.803835 206 199 189
0.183172 0.271251 0.803403 205 196 187
0.185950 0.272091 0.802850 205 197 186
0.187508 0.274082 0.801129 211 203 192
0.190099 0.275085 0.800409 214 205 196
0.192751 0.276028 0.799749 222 214 203
0.196294 0.276141 0.799932 197 189 178
0.202684 0.273643 0.802769 229 221 210
0.206714 0.273343 0.803374 233 225 214
0.212194 0.271739 0.805308 231 223 212
0.211403 0.275821 0.801456 228 220 209
0.211653 0.278928 0.798594 227 219 208
-0.497817 0.279088 0.743939 11 12 16
-0.495562 0.279709 0.743545 10 11 15
-0.494217 0.276690 0.746476 10 9 14
-0.492048 0.276907 0.746453 10 9 14
-0.490113 0.276149 0.747322 11 10 15
-0.487843 0.276749 0.746948 12 11 16
-0.485997 0.275543 0.748228 12 10 15
-0.483830 0.275676 0.748282 12 10 15
-0.481765 0.275339 0.748768 13 10 17
-0.479777 0.274622 0.749602 11 8 15
-0.477670 0.274406 0.749978 13 10 17
-0.475520 0.274368 0.750191 15 12 19
-0.473446 0.273939 0.750763 17 14 21
-0.471332 0.273668 0.751192 17 14 21
-0.469133 0.273791 0.751258 17 14 21
-0.467023 0.273445 0.751756 16 13 20
-0.464915 0.273048 0.752301 13 11 16
-0.462629 0.273558 0.752013 13 11 16
-0.460369 0.273921 0.751861 12 10 15
-0.458052 0.274601 0.751417 13 11 16
-0.455877 0.274478 0.751712 12 10 15
-0.453881 0.273277 0.752999 12 10 15
-0.451704 0.273072 0.753370 12 10 15
-0.449557 0.272648 0.753944 12 10 15
-0.447355 0.272519 0.754246 12 11 16
-0.445256 0.271684 0.755200 11 10 15
-0.443173 0.270669 0.756321 12 11 16
-0.441051 0.269823 0.757286 12 11 16
-0.438877 0.269272 0.757981 11 10 16
-0.436747 0.268325 0.759042 13 12 18
-0.434568 0.267658 0.759845 13 12 18
-0.432401 0.266811 0.760815 13 12 18
-0.430212 0.266051 0.761706 14 13 19
-0.427985 0.265511 0.762394 14 13 19
-0.425761 0.264864 0.763183 15 14 20
-0.423498 0.264484 0.763725 15 14 20
-0.421214 0.264216 0.764164 15 14 20
-0.418890 0.264277 0.764299 14 13 19
-0.416672 0.263202 0.765486 15 14 20
-0.414400 0.262567 0.766268 15 14 20
-0.412094 0.262191 0.766810 14 13 19
-0.409815 0.261404 0.767733 14 13 19
-0.407544 0.260378 0.768880 14 13 19
-0.405285 0.258998 0.770356 14 13 19
-0.402980 0.258034 0.771447 13 12 18
-0.400613 0.257788 0.771872 12 11 17
-0.398237 0.257564 0.772277 13 12 18
-0.395863 0.257198 0.772816 12 11 17
-0.393463 0.257163 0.773047 12 11 17
-0.391121 0.255864 0.774454 12 11 16
-0.388695 0.256039 0.774491 13 11 16
-0.386258 0.256410 0.774346 12 11 17
-0.383868 0.255448 0.775443 11 10 16
-0.381460 0.254591 0.776441 10 11 16
-0.379054 0.253229 0.777914 11 10 16
-0.376627 0.251977 0.779284 13 11 16
-0.374189 0.250433 0.780927 4 12 23
-0.371725 0.249426 0.782071 91 108 124
-0.369248 0.248339 0.783292 95 120 140
-0.366751 0.248245 0.783587 99 130 151
-0.364248 0.247869 0.784144 110 138 162
-0.361735 0.247154 0.785020 116 142 167
-0.359209 0.246380 0.785952 119 145 170
-0.356674 0.245825 0.786680 117 147 173
-0.354128 0.245247 0.787430 117 147 171
-0.351574 0.244744 0.788111 117 147 171
-0.348989 0.243526 0.789463 115 145 169
-0.346384 0.242198 0.790919 118 145 172
-0.343775 0.241209 0.792058 119 145 172
-0.341127 0.239656 0.793728 119 143 171
-0.338459 0.238108 0.795395 120 144 170
-0.335767 0.236472 0.797145 118 142 168
-0.333066 0.235061 0.798687 117 148 169
-0.330362 0.233897 0.799998 117 142 164
-0.327657 0.232965 0.801093 109 123 136
-0.324901 0.231526 0.802664 135 140 144
-0.322167 0.230632 0.803725 183 179 178
-0.319441 0.230011 0.804531 188 174 163
-0.316722 0.229609 0.805131 183 176 168
-0.314024 0.229554 0.805406 101 117 133
-0.311265 0.228914 0.806232 122 148 165
-0.308449 0.227812 0.807494 121 146 166
-0.305523 0.225806 0.809610 121 143 166
-0.302616 0.224207 0.811344 120 139 153
-0.299661 0.222375 0.813300 37 46 53
-0.296639 0.220173 0.815607 15 16 21
-0.293275 0.215405 0.820339 16 15 23
-0.277312 0.160628 0.872832 12 13 17
-0.274706 0.164048 0.869853 60 60 62
-0.271566 0.163655 0.870479 76 75 73
-0.268571 0.164290 0.870133 155 150 144
-0.265520 0.164567 0.870127 194 187 177
-0.262492 0.165012 0.869961 197 189 178
-0.259642 0.166537 0.868772 194 186 173
-0.256692 0.167426 0.868185 196 188 177
-0.253860 0.168977 0.866971 196 188 177
-0.250938 0.169986 0.866269 197 189 178
-0.248008 0.170932 0.865628 198 190 179
-0.245075 0.171843 0.865019 199 191 180
-0.242076 0.172415 0.864733 201 193 180
-0.239113 0.173164 0.864278 201 193 180
-0.236284 0.174559 0.863209 202 194 181
-0.233435 0.175827 0.862260 200 192 179
-0.230479 0.176573 0.861807 202 194 181
-0.227590 0.177618 0.861070 202 194 181
-0.224718 0.178721 0.860277 201 193 180
-0.221860 0.179866 0.859443 200 192 179
-0.219005 0.181004 0.858615 202 194 181
-0.216140 0.182082 0.857846 202 194 181
-0.213192 0.182803 0.857415 202 194 181
-0.210146 0.183134 0.857358 202 192 180
-0.207130 0.183600 0.857172 203 193 181
-0.204023 0.183721 0.857316 201 193 180
-0.200912 0.183850 0.857452 201 193 180
-0.197872 0.184263 0.857318 202 194 181
-0.194787 0.184520 0.857333 201 193 180
-0.191658 0.184638 0.857481 203 193 181
-0.188576 0.184938 0.857456 202 192 180
-0.185591 0.185584 0.857099 202 192 180
-0.182534 0.185990 0.856973 201 191 179
-0.179375 0.186065 0.857163 202 192 180
-0.176345 0.186581 0.856932 203 193 181
-0.173450 0.187533 0.856282 203 195 182
-0.170615 0.188661 0.855462 203 195 182
-0.167682 0.189474 0.854945 203 195 182
-0.164753 0.190295 0.854421 204 196 183
-0.161866 0.191234 0.853782 205 197 184
-0.158960 0.192112 0.853202 204 196 183
-0.156027 0.192904 0.852705 205 197 184
-0.153240 0.194107 0.851811 203 195 182
-0.150475 0.195357 0.850871 205 197 184
-0.147715 0.196604 0.849935 203 195 182
-0.144907 0.197704 0.849139 205 197 184
-0.142180 0.199008 0.848147 204 196 183
-0.139365 0.200061 0.847396 204 196 183
-0.136517 0.201017 0.846737 207 199 186
-0.133547 0.201653 0.846389 205 197 184
-0.130484 0.202052 0.846269 207 199 186
-0.127500 0.202658 0.845950 206 198 185
-0.124645 0.203582 0.845322 206 198 185
-0.121941 0.204869 0.844344 207 199 186
-0.119136 0.205895 0.843618 207 199 186
-0.116282 0.206797 0.843011 207 199 186
-0.113414 0.207659 0.842443 208 200 187
-0.110385 0.208144 0.842240 207 199 186
-0.107427 0.208796 0.841875 206 198 185
-0.104611 0.209768 0.841199 207 199 186
-0.101508 0.210094 0.841151 207 199 186
-0.098475 0.210582 0.840946 207 199 186
-0.095528 0.211263 0.840554 207 199 186
-0.092847 0.212512 0.839608 206 198 185
-0.090155 0.213726 0.838697 207 199 186
-0.087503 0.215009 0.837717 206 198 185
-0.084715 0.215997 0.837025 207 199 186
-0.082076 0.217282 0.836043 207 199 186
-0.079398 0.218473 0.835151 207 199 186
-0.076771 0.219757 0.834169 207 199 186
-0.073917 0.220576 0.833640 207 199 186
-0.071083 0.221430 0.833076 207 200 184
-0.067996 0.221792 0.832993 203 195 184
-0.066037 0.224317 0.830796 174 165 158
-0.064524 0.227646 0.827811 243 234 227
-0.062292 0.229574 0.826195 234 227 219
-0.059769 0.230933 0.825134 217 210 202
-0.056961 0.231756 0.824597 232 223 218
-0.053767 0.231875 0.824749 225 215 213
-0.050858 0.232516 0.824391 225 216 209
-0.048095 0.233420 0.823775 229 215 212
-0.045032 0.233788 0.823684 222 215 209
-0.042072 0.234342 0.823411 218 207 201
-0.039138 0.234943 0.823093 218 209 200
-0.036432 0.235934 0.822390 218 211 201
-0.033681 0.236842 0.821770 228 221 213
-0.030980 0.237829 0.821071 229 225 216
-0.028188 0.238659 0.820526 214 214 206
-0.025377 0.239455 0.820015 218 220 207
-0.022583 0.240274 0.819481 217 219 206
-0.019620 0.240819 0.819216 212 212 202
-0.016777 0.241558 0.818761 221 216 210
-0.013864 0.242184 0.818417 226 222 213
-0.010872 0.242687 0.818194 223 220 215
-0.007866 0.243172 0.817990 210 209 214
-0.005039 0.243934 0.817512 113 113 125
-0.002166 0.244625 0.817104 142 134 132
0.000400 0.245777 0.816240 219 209 200
0.003426 0.246235 0.816062 224 215 210
0.006587 0.246495 0.816080 222 219 210
0.009608 0.246967 0.815889 225 220 214
0.012700 0.247340 0.815796 228 225 218
0.015357 0.248344 0.815077 186 178 155
0.018113 0.249200 0.814506 170 145 104
0.021410 0.249289 0.814695 229 200 160
0.024657 0.249456 0.814808 201 178 147
0.027740 0.249860 0.814685 137 124 107
0.031278 0.249641 0.815182 136 136 126
0.034695 0.249602 0.815501 143 148 141
0.037816 0.249976 0.815409 144 147 140
0.041286 0.249887 0.815780 144 141 132
0.044754 0.249812 0.816136 143 135 124
0.048204 0.249772 0.816458 161 152 147
0.051414 0.250060 0.816455 225 214 208
0.054673 0.250290 0.816509 228 217 211
0.057702 0.250823 0.816261 196 186 176
0.060778 0.251298 0.816072 214 204 192
0.063615 0.252079 0.815577 171 146 106
0.066560 0.252723 0.815219 238 188 127
0.069650 0.253187 0.815041 241 190 124
0.072996 0.253335 0.815179 224 189 133
0.076452 0.253357 0.815444 164 148 99
0.079863 0.253444 0.815645 167 155 107
0.083153 0.253686 0.815691 175 167 130
0.086506 0.253859 0.815806 112 111 91
0.089712 0.254214 0.815739 121 123 112
0.092975 0.254507 0.815735 127 124 115
0.095928 0.255170 0.815360 128 128 118
0.099353 0.255283 0.815538 134 134 126
0.102594 0.255618 0.815493 136 133 126
0.106164 0.255579 0.815825 136 131 125
0.109511 0.255806 0.815889 148 141 131
0.112858 0.256038 0.815949 208 202 190
0.116242 0.256235 0.816044 199 191 180
0.119031 0.257103 0.815465 233 224 215
0.122148 0.257604 0.815253 229 222 214
0.125381 0.257981 0.815168 229 218 212
0.127803 0.259245 0.814188 143 141 126
0.130139 0.260593 0.813122 153 151 138
0.132465 0.261943 0.812053 159 149 137
0.135068 0.262988 0.811292 143 135 122
0.138459 0.263194 0.811379 200 191 176
0.141352 0.263929 0.810933 227 218 209
0.144420 0.264481 0.810670 203 196 188
0.146956 0.265586 0.809848 178 171 163
0.149576 0.266598 0.809119 162 155 147
0.151632 0.268181 0.807810 168 161 155
0.154114 0.269319 0.806952 151 144 136
0.157823 0.269216 0.807355 205 198 190
0.160881 0.269773 0.807087 206 199 191
0.164319 0.269955 0.807201 212 205 195
0.166799 0.271088 0.806347 205 198 188
0.169885 0.271621 0.806104 207 200 190
0.172331 0.272780 0.805224 207 200 190
0.175136 0.273585 0.804704 204 197 187
0.178591 0.273763 0.804823 204 197 187
0.181205 0.274750 0.804117 203 196 186
0.183823 0.275729 0.803419 203 195 184
0.185385 0.277698 0.801709 203 195 184
0.187743 0.278906 0.800775 206 198 187
0.190469 0.279765 0.800198 214 206 195
0.194106 0.279779 0.800485 215 207 196
0.199971 0.277760 0.802856 227 219 208
0.203561 0.277848 0.803071 233 225 214
0.211254 0.274230 0.807087 234 226 215
0.209727 0.278958 0.802543 231 223 212
0.210629 0.281464 0.800277 228 220 209
0.208086 0.287006 0.794890 224 215 206
-0.498124 0.279284 0.746855 8 9 13
-0.495893 0.279789 0.746568 10 11 15
-0.494527 0.276846 0.749451 13 12 17
-0.492371 0.276995 0.749492 11 10 15
-0.490356 0.276547 0.750083 12 11 16
-0.488095 0.277098 0.749755 11 10 15
-0.486224 0.275987 0.750958 12 10 15
-0.484063 0.276078 0.751054 11 9 14
-0.482007 0.275687 0.751594 11 8 15
-0.479989 0.275093 0.752322 12 9 16
-0.477877 0.274888 0.752693 15 12 19
-0.475713 0.274895 0.752868 17 14 21
-0.473655 0.274382 0.753524 16 13 20
-0.471521 0.274193 0.753882 14 11 18
-0.469308 0.274372 0.753900 14 11 18
-0.467203 0.273985 0.754441 12 10 15
-0.465089 0.273605 0.754976 12 10 15
-0.462828 0.273964 0.754828 12 10 15
-0.460571 0.274301 0.754701 11 9 14
-0.458256 0.274946 0.754289 12 10 15
-0.456093 0.274731 0.754674 12 10 15
-0.454125 0.273347 0.756140 12 10 15
-0.451944 0.273135 0.756523 13 11 16
-0.449773 0.272828 0.756995 13 11 16
-0.447533 0.272910 0.757106 12 11 16
-0.445413 0.272192 0.757960 11 10 15
-0.443327 0.271176 0.759091 12 11 16
-0.441199 0.270355 0.760042 12 11 16
-0.439020 0.269815 0.760733 13 12 18
-0.436896 0.268809 0.761859 14 13 19
-0.434721 0.268090 0.762718 14 13 19
-0.432529 0.267410 0.763541 14 13 19
-0.430320 0.266786 0.764314 14 13 19
-0.428086 0.266293 0.764966 14 13 19
-0.425844 0.265787 0.765631 14 13 19
-0.423588 0.265319 0.766261 14 13 19
-0.421321 0.264881 0.766863 15 14 20
-0.418992 0.264961 0.766984 14 13 19
-0.416783 0.263777 0.768283 15 14 20
-0.414522 0.262989 0.769215 14 13 19
-0.412206 0.262682 0.769699 14 13 19
-0.409919 0.261943 0.770586 13 12 18
-0.407627 0.261134 0.771540 13 12 18
-0.405371 0.259696 0.773082 13 12 18
-0.403069 0.258649 0.774260 14 13 19
-0.400707 0.258282 0.774804 13 12 18
-0.398330 0.258032 0.775239 13 12 18
-0.395946 0.257761 0.775694 13 12 18
-0.393543 0.257728 0.775928 11 10 16
-0.391207 0.256229 0.777534 11 10 15
-0.388777 0.256392 0.777586 12 10 15
-0.386331 0.256876 0.777336 11 10 16
-0.383935 0.255980 0.778381 10 10 18
-0.381524 0.255089 0.779421 9 9 17
-0.379106 0.254023 0.780627 11 10 16
-0.376676 0.252815 0.781968 13 11 16
-0.374237 0.251189 0.783703 7 11 22
-0.371771 0.250149 0.784888 80 93 109
-0.369290 0.249079 0.786103 93 116 134
-0.366791 0.248891 0.786490 101 129 150
-0.364285 0.248463 0.787104 110 136 159
-0.361767 0.247668 0.788063 116 140 166
-0.359238 0.246912 0.788988 119 145 170
-0.356699 0.246376 0.789705 119 147 171
-0.354146 0.245638 0.790614 120 148 172
-0.351583 0.244974 0.791455 121 147 172
-0.348989 0.243616 0.792950 120 146 171
-0.346375 0.242183 0.794518 120 146 171
-0.343754 0.241076 0.795779 121 145 171
-0.341099 0.239544 0.797444 120 146 169
-0.338424 0.238007 0.799115 118 145 166
-0.335730 0.236467 0.800790 119 146 165
-0.333023 0.235066 0.802335 117 132 139
-0.330310 0.233874 0.803685 169 165 164
-0.327605 0.233057 0.804681 198 184 175
-0.324844 0.231633 0.806252 158 145 137
-0.322098 0.230670 0.807389 152 138 127
-0.319354 0.229917 0.808329 182 157 137
-0.316612 0.229331 0.809110 176 159 143
-0.313910 0.229321 0.809347 103 108 114
-0.311140 0.228656 0.810206 131 153 166
-0.308346 0.227865 0.811185 122 148 165
-0.305444 0.226172 0.813021 123 145 168
-0.302573 0.224956 0.814406 122 141 156
-0.299635 0.223309 0.816203 87 96 103
-0.296687 0.221760 0.817908 14 15 20
-0.293504 0.218471 0.821269 14 13 21
-0.289911 0.212276 0.827399 12 15 20
-0.277453 0.163019 0.874780 16 17 22
-0.274878 0.166624 0.871606 20 19 24
-0.271832 0.166844 0.871655 65 63 64
-0.268980 0.168369 0.870461 105 101 98
-0.265920 0.168514 0.870581 180 173 165
-0.262918 0.169044 0.870335 198 190 179
-0.260042 0.170345 0.869353 198 190 177
-0.257092 0.171178 0.868818 197 189 178
-0.254235 0.172526 0.867790 198 190 179
-0.251347 0.173669 0.866958 199 191 180
-0.248374 0.174328 0.866588 201 193 182
-0.245422 0.175099 0.866111 200 192 179
-0.242467 0.175852 0.865651 201 193 180
-0.239532 0.176697 0.865103 202 194 181
-0.236738 0.178217 0.863908 203 195 182
-0.233926 0.179609 0.862836 203 195 182
-0.230988 0.180388 0.862350 202 194 181
-0.228130 0.181522 0.861524 203 195 182
-0.225301 0.182766 0.860591 202 194 181
-0.222481 0.184021 0.859648 202 194 181
-0.219659 0.185243 0.858736 202 194 181
-0.216813 0.186343 0.857941 202 194 181
-0.213928 0.187264 0.857317 201 193 180
-0.210977 0.187916 0.856952 201 191 179
-0.207965 0.188334 0.856812 203 193 181
-0.204880 0.188482 0.856932 202 194 181
-0.201826 0.188766 0.856922 201 193 180
-0.198810 0.189204 0.856764 202 194 181
-0.195711 0.189353 0.856885 201 193 180
-0.192600 0.189477 0.857029 203 193 181
-0.189535 0.189780 0.857002 201 191 179
-0.186494 0.190178 0.856883 202 192 180
-0.183424 0.190488 0.856850 201 191 179
-0.180315 0.190685 0.856927 201 191 179
-0.177288 0.191161 0.856733 200 190 178
-0.174386 0.192040 0.856151 203 195 182
-0.171532 0.193060 0.855431 203 195 182
-0.168594 0.193814 0.854969 203 195 182
-0.165648 0.194539 0.854535 204 196 183
-0.162754 0.195419 0.853950 205 195 183
-0.159829 0.196199 0.853463 204 194 182
-0.156871 0.196881 0.853070 205 197 184
-0.154110 0.198126 0.852131 203 195 182
-0.151331 0.199299 0.851261 205 197 184
-0.148574 0.200517 0.850347 206 198 185
-0.145748 0.201535 0.849627 205 197 184
-0.143015 0.202790 0.848678 206 198 185
-0.140195 0.203799 0.847965 205 197 184
-0.137327 0.204675 0.847382 205 197 184
-0.134332 0.205216 0.847126 205 197 184
-0.131288 0.205641 0.846982 205 197 184
-0.128360 0.206358 0.846554 206 198 185
-0.125527 0.207309 0.845898 204 196 183
-0.122772 0.208443 0.845063 205 197 184
-0.119936 0.209368 0.844430 205 197 184
-0.117080 0.210240 0.843851 205 197 184
-0.114083 0.210778 0.843597 206 198 185
-0.111033 0.211196 0.843460 206 198 185
-0.108213 0.212145 0.842804 206 198 185
-0.105430 0.213172 0.842073 207 199 186
-0.102412 0.213665 0.841862 208 200 187
-0.099370 0.214111 0.841699 208 200 187
-0.096398 0.214713 0.841383 208 200 187
-0.093738 0.215985 0.840410 208 200 187
-0.091071 0.217227 0.839467 208 200 187
-0.088457 0.218568 0.838425 207 199 186
-0.085681 0.219557 0.837728 207 199 186
-0.083020 0.220774 0.836807 206 198 185
-0.080434 0.222128 0.835750 207 199 186
-0.077854 0.223480 0.834696 207 199 186
-0.074986 0.224249 0.834214 207 199 186
-0.072320 0.225406 0.833350 208 199 184
-0.069218 0.225715 0.833320 205 197 184
-0.066882 0.227490 0.831846 193 184 175
-0.065597 0.231227 0.828439 227 218 211
-0.063513 0.233405 0.826566 238 231 223
-0.060987 0.234734 0.825528 245 236 229
-0.058138 0.235458 0.825087 195 186 181
-0.054768 0.235240 0.825575 226 216 214
-0.051821 0.235795 0.825302 224 212 212
-0.049150 0.236843 0.824540 226 216 214
-0.046231 0.237448 0.824217 221 221 213
-0.043240 0.237926 0.824019 222 212 210
-0.040202 0.238331 0.823894 220 213 203
-0.037587 0.239457 0.823055 200 211 181
-0.035163 0.240897 0.821904 140 162 113
-0.032626 0.242132 0.820955 140 168 107
-0.030020 0.243241 0.820131 142 167 112
-0.027278 0.244121 0.819534 136 156 105
-0.024354 0.244701 0.819234 136 151 110
-0.021209 0.244928 0.819285 197 202 179
-0.018144 0.245290 0.819203 225 223 210
-0.015085 0.245667 0.819105 225 221 212
-0.012106 0.246173 0.818880 223 220 215
-0.009054 0.246570 0.818763 215 215 217
-0.006370 0.247535 0.818082 113 117 116
-0.003619 0.248392 0.817507 183 180 171
-0.001121 0.249625 0.816557 228 221 211
0.001813 0.250199 0.816263 224 212 212
0.004860 0.250607 0.816136 221 217 208
0.007909 0.251018 0.816006 221 217 206
0.011029 0.251329 0.815976 230 220 210
0.013941 0.251946 0.815640 225 218 208
0.016718 0.252754 0.815114 196 184 168
0.019913 0.252971 0.815178 177 169 150
0.023007 0.253336 0.815095 152 153 135
0.025970 0.253888 0.814826 137 148 132
0.029442 0.253742 0.815255 124 140 127
0.032923 0.253596 0.815685 131 144 134
0.035953 0.254075 0.815490 136 144 133
0.039301 0.254130 0.815719 173 177 163
0.042845 0.253935 0.816201 233 225 212
0.046529 0.253569 0.816855 145 145 137
0.049918 0.253605 0.817106 224 220 209
0.053292 0.253671 0.817327 228 219 214
0.056364 0.254135 0.817149 225 221 210
0.059325 0.254744 0.816826 209 199 187
0.062241 0.255412 0.816443 228 211 191
0.065395 0.255779 0.816362 229 184 129
0.068549 0.256152 0.816277 244 184 121
0.071817 0.256389 0.816329 222 180 120
0.075356 0.256299 0.816712 170 149 104
0.078704 0.256454 0.816847 160 147 102
0.081950 0.256741 0.816851 162 154 115
0.085322 0.256882 0.817002 141 143 132
0.088688 0.257037 0.817139 126 129 134
0.091966 0.257305 0.817163 133 131 132
0.094765 0.258139 0.816613 133 133 131
0.098229 0.258198 0.816849 133 132 130
0.101573 0.258405 0.816936 137 133 130
0.105144 0.258359 0.817279 138 133 127
0.108515 0.258552 0.817382 169 161 150
0.111881 0.258755 0.817473 206 198 185
0.115353 0.258848 0.817678 195 187 174
0.118236 0.259604 0.817210 228 220 207
0.121458 0.259984 0.817123 231 222 207
0.124824 0.260211 0.817192 225 213 201
0.127165 0.261557 0.816123 229 222 204
0.129531 0.262867 0.815090 142 135 127
0.131921 0.264142 0.814092 156 147 140
0.134508 0.265198 0.813316 151 145 131
0.137654 0.265660 0.813147 207 199 178
0.140675 0.266255 0.812840 180 170 158
0.143729 0.266817 0.812569 153 143 133
0.146293 0.267887 0.811778 231 221 211
0.149070 0.268732 0.811216 218 210 199
0.151191 0.270243 0.809974 160 151 142
0.153631 0.271420 0.809071 158 151 141
0.157108 0.271548 0.809244 179 172 164
0.160171 0.272097 0.808985 171 164 156
0.163832 0.272055 0.809333 200 193 185
0.166035 0.273456 0.808200 208 201 191
0.168757 0.274341 0.807596 205 198 188
0.171013 0.275675 0.806532 203 196 186
0.173620 0.276662 0.805822 203 196 186
0.176514 0.277369 0.805401 201 194 184
0.179019 0.278446 0.804598 201 194 184
0.181730 0.279323 0.804001 200 194 182
0.183497 0.281083 0.802495 202 194 183
0.185574 0.282538 0.801300 203 193 183
0.188564 0.283139 0.800986 201 193 182
0.191885 0.283436 0.800986 212 204 193
0.197496 0.281644 0.803144 190 184 172
0.201240 0.281580 0.803519 239 233 221
0.208506 0.278346 0.807172 230 223 213
0.208127 0.282017 0.803687 229 220 211
0.206981 0.286333 0.799531 230 221 212
0.206517 0.289998 0.796045 227 219 208
0.209382 0.290698 0.795627 225 217 206
-0.498367 0.279730 0.749553 12 10 15
-0.496102 0.280355 0.749155 11 9 14
-0.494724 0.277461 0.752014 12 10 15
-0.492641 0.277299 0.752345 11 9 14
-0.490627 0.276833 0.752959 13 11 16
-0.488341 0.277473 0.752549 12 10 15
-0.486438 0.276485 0.753647 11 9 14
-0.484308 0.276430 0.753882 13 11 16
-0.482256 0.276009 0.754456 17 14 21
-0.480237 0.275404 0.755202 17 14 21
-0.478147 0.275084 0.755684 18 16 21
-0.475999 0.274998 0.755949 17 15 20
-0.473934 0.274496 0.756601 15 13 18
-0.471748 0.274539 0.756748 13 11 16
-0.469545 0.274649 0.756832 12 10 15
-0.467444 0.274221 0.757417 12 10 15
-0.465307 0.273941 0.757865 12 10 15
-0.463077 0.274118 0.757888 12 10 15
-0.460832 0.274360 0.757851 11 9 14
-0.458501 0.275062 0.757386 12 10 15
-0.456335 0.274843 0.757778 12 10 15
-0.454372 0.273402 0.759311 13 11 16
-0.452176 0.273255 0.759638 12 10 15
-0.450010 0.272890 0.760170 14 12 17
-0.447739 0.273135 0.760132 14 12 17
-0.445616 0.272410 0.761000 14 12 17
-0.443503 0.271547 0.761998 13 12 17
-0.441361 0.270799 0.762889 13 12 17
-0.439173 0.270298 0.763552 15 14 20
-0.437044 0.269305 0.764674 15 14 20
-0.434870 0.268548 0.765577 13 12 18
-0.432679 0.267844 0.766431 14 13 19
-0.430468 0.267208 0.767223 14 13 19
-0.428224 0.266760 0.767839 15 14 20
-0.425967 0.266354 0.768417 14 13 19
-0.423705 0.265924 0.769018 14 13 19
-0.421439 0.265447 0.769663 14 13 19
-0.419112 0.265472 0.769839 15 14 20
-0.416893 0.264362 0.771080 15 14 20
-0.414619 0.263677 0.771924 13 12 18
-0.412302 0.263353 0.772429 14 13 19
-0.410007 0.262687 0.773255 13 12 18
-0.407698 0.262048 0.774059 13 12 18
-0.405433 0.260710 0.775520 14 13 19
-0.403123 0.259767 0.776611 14 13 19
-0.400763 0.259352 0.777205 13 12 18
-0.398392 0.258981 0.777759 12 11 17
-0.396012 0.258630 0.778295 12 11 17
-0.393601 0.258693 0.778442 12 11 17
-0.391254 0.257387 0.779880 10 9 15
-0.388824 0.257531 0.779952 12 11 17
-0.386377 0.258013 0.779705 11 10 16
-0.383972 0.257324 0.780563 10 9 15
-0.381556 0.256619 0.781437 12 11 17
-0.379138 0.255557 0.782650 13 12 18
-0.376707 0.254445 0.783911 12 11 17
-0.374265 0.253091 0.785403 14 14 22
-0.371800 0.252118 0.786535 47 55 66
-0.369326 0.250613 0.788173 91 110 125
-0.366829 0.250074 0.788897 98 125 146
-0.364321 0.249423 0.789728 108 135 156
-0.361801 0.248406 0.790906 115 140 162
-0.359267 0.247475 0.792006 118 142 166
-0.356720 0.246669 0.792987 119 143 167
-0.354161 0.245871 0.793961 120 146 171
-0.351595 0.245283 0.794738 121 149 173
-0.348996 0.243952 0.796221 121 147 170
-0.346376 0.242505 0.797815 122 148 171
-0.343744 0.241255 0.799225 120 146 169
-0.341087 0.239811 0.800819 120 147 168
-0.338412 0.238391 0.802394 121 148 167
-0.335710 0.236798 0.804133 124 151 170
-0.332997 0.235389 0.805700 174 166 164
-0.330275 0.234145 0.807111 174 154 145
-0.327552 0.233134 0.808302 183 165 153
-0.324771 0.231527 0.810061 187 173 160
-0.322014 0.230524 0.811248 173 155 145
-0.319266 0.229810 0.812159 188 158 122
-0.316480 0.228807 0.813347 184 163 108
-0.313741 0.228486 0.813886 123 121 109
-0.310925 0.227453 0.815105 135 151 166
-0.308134 0.226827 0.815936 125 148 166
-0.305229 0.225221 0.817707 123 149 166
-0.302325 0.223817 0.819285 125 144 158
-0.299359 0.222041 0.821220 127 137 146
-0.296444 0.220895 0.822555 5 8 15
-0.293405 0.218871 0.824732 10 9 15
-0.289988 0.214111 0.829533 15 18 25
-0.273832 0.160670 0.881530 18 19 24
-0.271798 0.167992 0.874769 37 38 42
-0.269106 0.170579 0.872550 75 75 75
-0.266223 0.171832 0.871609 137 134 129
-0.263222 0.172323 0.871402 196 189 179
-0.260299 0.173291 0.870734 200 192 179
-0.257424 0.174521 0.869815 199 191 180
-0.254621 0.176123 0.868538 201 193 182
-0.251765 0.177388 0.867584 201 192 183
-0.248784 0.177950 0.867307 202 193 184
-0.245825 0.178637 0.866910 202 194 183
-0.242928 0.179637 0.866211 203 195 184
-0.240046 0.180688 0.865462 202 194 181
-0.237278 0.182274 0.864196 203 195 182
-0.234547 0.183991 0.862804 201 193 180
-0.231635 0.184827 0.862261 203 195 182
-0.228766 0.185849 0.861539 203 195 182
-0.225944 0.187057 0.860636 203 195 182
