0.106943 -0.340195 0.731221 128 127 125
0.114479 -0.344618 0.732456 67 66 64
0.122869 -0.350561 0.734154 43 43 43
0.132290 -0.358322 0.736406 45 45 47
0.143903 -0.370018 0.739859 43 44 48
0.155705 -0.381858 0.743354 45 46 51
0.166021 -0.390764 0.745950 45 46 51
0.175688 -0.398328 0.748134 47 48 53
0.184614 -0.404413 0.749866 43 44 49
0.193365 -0.410068 0.751464 48 49 54
0.201740 -0.414943 0.752823 47 47 55
0.209777 -0.419123 0.753969 39 39 47
0.217232 -0.422195 0.754776 33 33 41
0.223739 -0.423550 0.755059 37 37 45
0.230687 -0.425620 0.755560 44 44 52
0.238442 -0.429017 0.756463 43 43 51
0.247369 -0.434331 0.757949 32 32 40
0.256879 -0.440525 0.759702 38 38 46
0.266375 -0.446581 0.761411 46 46 54
0.275390 -0.451726 0.762841 48 48 56
0.287909 -0.462554 0.765998 52 53 58
0.302928 -0.477302 0.770344 65 66 71
0.318790 -0.493185 0.775031 73 72 77
0.330103 -0.501465 0.777406 76 76 78
0.338224 -0.504482 0.778180 77 77 79
0.344521 -0.504526 0.778052 77 77 79
0.352286 -0.506865 0.778619 76 75 80
0.357593 -0.505284 0.777996 76 75 80
0.363197 -0.504164 0.777513 76 77 81
0.368140 -0.502011 0.776717 77 78 82
0.374964 -0.502755 0.776799 78 79 83
0.383724 -0.506422 0.777766 82 83 87
0.393145 -0.511017 0.779012 82 83 85
0.398200 -0.508944 0.778239 83 83 85
0.402491 -0.505731 0.777121 82 82 84
0.411650 -0.509774 0.778198 83 83 83
0.417950 -0.509516 0.777973 93 93 91
0.418826 -0.501281 0.775336 145 146 141
0.325743 -0.307000 0.715715 222 220 208
0.330107 -0.305164 0.715033 222 218 206
0.331852 -0.299711 0.713261 222 218 206
0.334113 -0.295017 0.711718 228 224 212
0.340529 -0.296032 0.711895 225 221 209
0.713358 -0.740616 0.844708 132 128 119
0.720153 -0.739157 0.844090 143 139 130
0.723953 -0.733802 0.842303 148 144 135
0.723351 -0.722812 0.838824 150 146 137
0.723240 -0.712560 0.835570 154 147 139
0.726218 -0.706342 0.833526 156 149 141
0.732737 -0.704653 0.832842 156 149 141
0.737428 -0.700659 0.831467 157 150 142
0.741604 -0.696044 0.829905 157 153 141
0.745480 -0.691086 0.828242 157 153 142
0.751329 -0.688598 0.827319 157 153 142
0.758163 -0.687324 0.826759 158 154 143
0.764579 -0.685528 0.826044 161 154 144
0.771550 -0.684400 0.825527 161 154 144
0.778177 -0.682847 0.824883 162 155 145
0.784326 -0.680713 0.824066 161 154 144
0.789856 -0.677841 0.823028 157 150 142
0.795965 -0.675664 0.822198 150 143 135
0.802007 -0.673407 0.821344 145 138 130
0.807573 -0.670595 0.820324 143 139 130
0.812793 -0.667387 0.819187 144 140 131
0.819455 -0.665860 0.818550 146 142 133
0.824197 -0.662118 0.817254 148 144 135
0.827450 -0.656692 0.815456 149 145 136
0.832018 -0.652797 0.814115 151 147 138
0.836572 -0.648908 0.812776 153 149 140
0.842096 -0.646128 0.811768 155 151 140
0.847982 -0.643760 0.810882 156 152 141
0.853264 -0.640723 0.809797 158 154 145
0.858825 -0.638005 0.808807 154 151 144
0.864027 -0.634898 0.807702 132 129 124
0.869992 -0.632636 0.806848 104 100 97
0.877333 -0.631868 0.806438 65 63 64
0.889861 -0.636685 0.807685 19 18 23
0.904696 -0.643900 0.809641 26 25 31
0.921789 -0.653419 0.812278 18 19 24
0.939720 -0.663697 0.815137 15 15 23
0.955161 -0.671207 0.817174 14 15 20
0.971455 -0.679505 0.819441 13 14 19
0.985921 -0.685778 0.821106 15 14 20
0.999122 -0.690644 0.822353 15 16 21
1.007624 -0.690580 0.822140 14 15 20
1.013914 -0.688222 0.821249 14 15 20
-0.562898 0.127351 0.600366 180 180 172
-0.558045 -0.009336 0.644136 63 45 41
-0.555398 -0.014713 0.645805 76 49 40
-0.552675 -0.015907 0.646130 97 61 49
-0.549930 -0.015525 0.645948 111 72 55
-0.547185 -0.016368 0.646160 119 77 55
-0.544429 -0.018169 0.646678 133 88 65
-0.541663 -0.018004 0.646566 131 85 61
-0.538889 -0.018226 0.646577 131 85 61
-0.536109 -0.018378 0.646566 136 88 65
-0.533327 -0.018155 0.646435 137 87 62
-0.530542 -0.017791 0.646258 142 92 67
-0.527750 -0.017598 0.646136 132 85 59
-0.524938 -0.018136 0.646248 135 89 63
-0.522122 -0.018465 0.646293 127 81 55
-0.519278 -0.019562 0.646584 133 85 62
-0.516380 -0.022012 0.647309 138 92 66
-0.513495 -0.023444 0.647706 122 78 53
-0.510627 -0.024001 0.647823 130 86 61
-0.507698 -0.025883 0.648364 132 88 63
-0.504800 -0.026596 0.648530 138 94 69
-0.501846 -0.028320 0.649020 122 78 53
-0.498893 -0.029673 0.649391 134 90 65
-0.495970 -0.030164 0.649486 137 93 68
-0.493045 -0.030518 0.649537 135 91 64
-0.490028 -0.032329 0.650053 134 88 62
-0.487027 -0.033578 0.650389 129 84 55
-0.483996 -0.035086 0.650808 134 88 62
-0.480922 -0.037006 0.651358 133 89 62
-0.477875 -0.038269 0.651698 136 91 68
-0.474660 -0.041635 0.652710 127 85 63
-0.471504 -0.043880 0.653362 125 84 64
-0.468163 -0.048182 0.654671 106 73 58
-0.464823 -0.052069 0.655847 75 52 44
-0.461238 -0.058464 0.657823 31 21 19
-0.457672 -0.064109 0.659558 12 11 16
-0.454689 -0.062945 0.659120 12 13 18
-0.451998 -0.058727 0.657708 16 15 20
-0.449423 -0.053531 0.655985 20 19 24
-0.446760 -0.049465 0.654623 24 23 29
-0.444121 -0.045351 0.653245 29 30 35
-0.441334 -0.042784 0.652361 35 35 43
-0.438494 -0.040793 0.651661 35 38 45
-0.435658 -0.038820 0.650967 35 39 48
-0.432728 -0.037694 0.650542 36 40 49
-0.429838 -0.036241 0.650014 35 39 48
-0.426773 -0.036216 0.649940 37 40 49
-0.424175 -0.032473 0.648682 34 37 46
-0.421609 -0.028620 0.647390 114 113 121
-0.418905 -0.025943 0.646473 127 128 133
-0.416060 -0.024362 0.645904 146 147 151
-0.413233 -0.022685 0.645305 159 160 162
-0.410207 -0.022424 0.645156 164 168 167
-0.407436 -0.020385 0.644442 171 173 170
-0.404307 -0.020780 0.644502 170 172 167
-0.400899 -0.022932 0.645119 169 171 166
-0.397460 -0.025148 0.645756 166 168 163
-0.394091 -0.026791 0.646211 165 167 162
-0.390607 -0.029027 0.646854 165 167 162
-0.387055 -0.031544 0.647585 163 165 162
-0.383480 -0.034055 0.648314 163 165 162
-0.379926 -0.036304 0.648960 162 164 161
-0.376556 -0.037389 0.649236 162 164 161
-0.373054 -0.039126 0.649718 162 164 159
-0.369550 -0.040772 0.650171 161 163 160
-0.366045 -0.042323 0.650593 161 163 160
-0.362501 -0.043987 0.651051 160 162 157
-0.358961 -0.045537 0.651473 165 167 162
-0.355375 -0.047226 0.651938 177 179 174
-0.351693 -0.049303 0.652525 178 180 175
-0.348017 -0.051244 0.653069 163 165 160
-0.344306 -0.053258 0.653636 155 157 152
-0.340783 -0.054274 0.653886 148 153 149
-0.337164 -0.055671 0.654257 145 147 144
-0.333538 -0.057024 0.654613 144 146 143
-0.329773 -0.058927 0.655143 142 144 141
-0.326176 -0.059990 0.655406 143 143 141
-0.322378 -0.061868 0.655928 143 143 141
-0.319385 -0.060179 0.655321 143 143 141
-0.318534 -0.049391 0.651840 138 138 136
-0.317088 -0.041380 0.649238 175 172 167
-0.314764 -0.037200 0.647846 163 159 156
-0.311847 -0.035523 0.647244 174 172 173
-0.308632 -0.035060 0.647027 164 162 163
-0.305464 -0.034394 0.646745 152 151 149
-0.301671 -0.036158 0.647229 157 154 149
-0.298313 -0.036170 0.647161 151 146 140
-0.295440 -0.034306 0.646501 152 145 137
-0.293584 -0.028651 0.644646 154 151 146
-0.291025 -0.025719 0.643650 178 177 172
-0.287895 -0.024916 0.643325 183 183 175
-0.285093 -0.022927 0.642626 206 206 196
-0.282539 -0.020079 0.641657 202 202 194
-0.279560 -0.018766 0.641171 174 175 169
-0.276354 -0.018249 0.640936 184 185 180
-0.273523 -0.016434 0.640293 156 157 152
-0.270983 -0.013651 0.639345 141 142 137
-0.267811 -0.013021 0.639074 145 144 139
-0.264263 -0.013624 0.639192 161 158 151
-0.260956 -0.013400 0.639049 171 170 165
-0.257054 -0.015078 0.639503 161 163 160
-0.252490 -0.018797 0.640599 142 146 147
-0.249714 -0.016775 0.639890 171 173 172
-0.247849 -0.011934 0.638296 155 155 155
-0.245941 -0.007312 0.636771 191 196 192
-0.242914 -0.006175 0.636341 208 213 209
-0.239081 -0.007468 0.636674 140 142 141
-0.234463 -0.011046 0.637723 162 163 158
-0.229760 -0.014772 0.638818 175 175 167
-0.223494 -0.022944 0.641306 176 176 166
-0.215052 -0.037188 0.645696 168 169 163
-0.161093 -0.157887 0.683278 176 166 156
-0.153976 -0.166380 0.685851 178 165 156
-0.149355 -0.167847 0.686223 179 167 155
-0.143602 -0.172321 0.687535 179 165 154
-0.137970 -0.176353 0.688708 179 165 156
-0.132459 -0.179955 0.689746 180 166 157
-0.127056 -0.183177 0.690664 179 165 156
-0.121473 -0.186777 0.691699 181 167 158
-0.116085 -0.189778 0.692546 182 168 159
-0.110739 -0.192588 0.693333 182 168 159
-0.105508 -0.195026 0.694003 182 168 159
-0.100005 -0.198073 0.694863 182 168 159
-0.094656 -0.200651 0.695576 185 168 160
-0.088782 -0.204445 0.696667 183 166 158
-0.082206 -0.209844 0.698259 181 164 156
-0.075898 -0.214471 0.699608 182 165 157
-0.069602 -0.218959 0.700913 182 165 157
-0.063308 -0.223332 0.702181 180 163 155
-0.056878 -0.227919 0.703515 179 162 154
-0.050765 -0.231663 0.704586 175 161 152
-0.044336 -0.236039 0.705852 175 161 152
-0.037788 -0.240582 0.707169 175 161 152
-0.031153 -0.245214 0.708513 174 159 152
-0.024447 -0.249897 0.709872 172 157 152
-0.017976 -0.253952 0.711035 170 157 151
-0.011382 -0.258180 0.712250 168 155 147
-0.004740 -0.262414 0.713466 165 155 146
0.002204 -0.267202 0.714853 164 154 145
0.009179 -0.271950 0.716227 162 153 144
0.016235 -0.276761 0.717620 161 152 143
0.023451 -0.281803 0.719083 160 153 145
0.030807 -0.287026 0.720601 159 152 142
0.038429 -0.292686 0.722254 159 152 142
0.046051 -0.298227 0.723869 161 154 146
0.053979 -0.304273 0.725639 159 155 146
0.061743 -0.309863 0.727266 161 156 150
0.069766 -0.315855 0.729017 160 157 150
0.078369 -0.322873 0.731084 159 156 151
0.086638 -0.329096 0.732904 149 148 143
0.094642 -0.334678 0.734524 104 102 103
0.103465 -0.341728 0.736596 51 51 53
0.112513 -0.349074 0.738760 45 45 47
0.121002 -0.355212 0.740548 44 43 48
0.130485 -0.363107 0.742878 45 44 49
0.141330 -0.373405 0.745950 44 45 50
0.151796 -0.382813 0.748744 44 45 50
0.161689 -0.390991 0.751157 46 46 54
0.170805 -0.397596 0.753080 46 47 52
0.179872 -0.403985 0.754936 47 48 53
0.188446 -0.409361 0.756477 46 47 52
0.196669 -0.414003 0.757791 46 47 52
0.204227 -0.417370 0.758709 48 48 56
0.211787 -0.420663 0.759603 31 31 39
0.219269 -0.423745 0.760431 36 36 44
0.225562 -0.424693 0.760600 44 44 52
0.233045 -0.427651 0.761389 38 38 46
0.241473 -0.432157 0.762654 34 34 42
0.251106 -0.438616 0.764520 34 34 42
0.261461 -0.446172 0.766722 44 44 52
0.272073 -0.454023 0.769014 48 48 56
0.283949 -0.463833 0.771908 46 46 54
0.296780 -0.475051 0.775232 52 53 58
0.309939 -0.486620 0.778662 61 62 67
0.320655 -0.494028 0.780810 66 65 70
0.328139 -0.496090 0.781311 70 70 72
0.337447 -0.501019 0.782693 74 74 76
0.345230 -0.503427 0.783298 77 76 81
0.354867 -0.508705 0.784785 81 82 86
0.363481 -0.512280 0.785747 83 84 88
0.370134 -0.512723 0.785746 85 86 90
0.379523 -0.517368 0.787035 88 89 93
0.387011 -0.519003 0.787399 91 92 94
0.397412 -0.525033 0.789111 94 95 97
0.404199 -0.525481 0.789108 97 97 97
0.407616 -0.520827 0.787541 91 90 88
0.409796 -0.514362 0.785419 122 121 117
0.309759 -0.306389 0.720815 168 166 154
0.312639 -0.302465 0.719493 225 223 211
0.313501 -0.295734 0.717314 220 216 204
0.314977 -0.289927 0.715418 225 219 205
0.320276 -0.289486 0.715163 224 217 201
0.324481 -0.287521 0.714441 226 220 204
0.329590 -0.286798 0.714100 225 219 203
0.333908 -0.284989 0.713426 224 218 202
0.339037 -0.284279 0.713088 226 220 204
0.343835 -0.283113 0.712610 225 219 205
0.724456 -0.721432 0.845115 127 123 112
0.731830 -0.720756 0.844740 138 134 123
0.735722 -0.715634 0.843012 143 139 130
0.733077 -0.702290 0.838786 147 143 134
0.737343 -0.697760 0.837240 149 145 136
0.743413 -0.695510 0.836387 152 148 137
0.748245 -0.691726 0.835068 153 149 138
0.754453 -0.689657 0.834271 153 149 140
0.761125 -0.688157 0.833646 153 149 140
0.767403 -0.686168 0.832872 151 147 138
0.774386 -0.685030 0.832357 151 144 136
0.780988 -0.683421 0.831698 147 140 132
0.787655 -0.681884 0.831061 142 135 127
0.791970 -0.677542 0.829575 137 132 126
0.797940 -0.675182 0.828689 138 133 127
0.803376 -0.672197 0.827614 141 136 130
0.808946 -0.669378 0.826589 142 137 131
0.814415 -0.666450 0.825532 144 140 131
0.821350 -0.665223 0.824988 145 141 132
0.826206 -0.661599 0.823721 147 143 134
0.829369 -0.656059 0.821874 149 145 136
0.834265 -0.652525 0.820635 152 145 137
0.838914 -0.648728 0.819316 154 147 139
0.844317 -0.645796 0.818259 154 150 139
0.850055 -0.643247 0.817317 155 151 140
0.855133 -0.639970 0.816156 154 151 142
0.861715 -0.638364 0.815498 132 129 124
0.867597 -0.635984 0.814608 99 97 98
0.876427 -0.636819 0.814686 63 61 64
0.885791 -0.638199 0.814928 21 20 25
0.900811 -0.645634 0.816991 23 24 29
0.918411 -0.655724 0.819851 15 16 21
0.936715 -0.666427 0.822893 18 19 24
0.953196 -0.675053 0.825307 15 16 21
0.964418 -0.678020 0.826018 14 15 20
0.977826 -0.683217 0.827398 15 16 21
0.988512 -0.685497 0.827900 16 15 20
0.999475 -0.688013 0.828471 15 16 21
1.007223 -0.687165 0.828032 15 16 21
1.013094 -0.684377 0.827011 14 15 20
-0.567399 0.136187 0.600123 167 171 172
-0.565278 0.130893 0.601797 170 172 169
-0.563077 0.127501 0.602852 176 177 171
-0.555612 -0.016026 0.649237 59 39 32
-0.552890 -0.018117 0.649860 85 55 45
-0.550133 -0.017510 0.649607 89 53 37
-0.547376 -0.017762 0.649632 105 67 48
-0.544613 -0.019758 0.650223 110 68 46
-0.541836 -0.019997 0.650244 120 75 52
-0.539053 -0.020051 0.650205 129 83 59
-0.536263 -0.020217 0.650202 126 78 55
-0.533469 -0.020147 0.650122 139 89 64
-0.530681 -0.019312 0.649795 142 91 64
-0.527879 -0.019191 0.649699 139 89 62
-0.525055 -0.019858 0.649857 137 90 62
-0.522232 -0.020097 0.649877 138 91 65
-0.519383 -0.021010 0.650115 138 91 65
-0.516475 -0.023516 0.650869 125 79 53
-0.513588 -0.024752 0.651211 121 75 49
-0.510715 -0.025209 0.651300 132 86 60
-0.507773 -0.027224 0.651894 136 92 67
-0.504890 -0.027358 0.651879 124 80 55
-0.501930 -0.029071 0.652374 132 88 63
-0.498977 -0.030286 0.652708 132 88 63
-0.496047 -0.030792 0.652812 142 98 73
-0.493108 -0.031290 0.652914 136 92 65
-0.490088 -0.033026 0.653415 132 88 61
-0.487094 -0.034052 0.653687 139 95 68
-0.484084 -0.035141 0.653978 132 88 61
-0.480991 -0.037270 0.654606 130 86 61
-0.477919 -0.038807 0.655042 125 83 59
-0.474716 -0.041932 0.655990 127 85 63
-0.471541 -0.044344 0.656707 124 83 61
-0.468161 -0.049069 0.658170 108 75 58
-0.464802 -0.053099 0.659408 79 57 46
-0.461279 -0.058668 0.661142 27 16 14
-0.457711 -0.064282 0.662890 10 8 11
-0.454567 -0.064809 0.662997 10 11 16
-0.451812 -0.061147 0.661754 16 15 20
-0.449232 -0.055869 0.659990 18 17 22
-0.446522 -0.052137 0.658725 22 21 27
-0.443872 -0.047994 0.657327 27 28 33
-0.441069 -0.045461 0.656449 33 34 39
-0.438179 -0.043795 0.655850 34 37 44
-0.435303 -0.042038 0.655222 33 38 44
-0.432389 -0.040638 0.654708 35 39 48
-0.429501 -0.039049 0.654134 36 40 49
-0.426419 -0.039055 0.654073 37 41 50
-0.423706 -0.036098 0.653059 34 37 46
-0.421089 -0.032509 0.651842 113 112 120
-0.418427 -0.029379 0.650773 122 123 128
-0.415637 -0.027287 0.650038 144 145 150
-0.412840 -0.025284 0.649332 153 154 156
-0.409875 -0.024501 0.649017 164 166 165
-0.407075 -0.022586 0.648340 169 171 168
-0.403986 -0.022627 0.648290 169 171 166
-0.400606 -0.024520 0.648835 169 171 166
-0.397141 -0.026834 0.649515 167 169 164
-0.393687 -0.028939 0.650127 165 167 162
-0.390225 -0.030964 0.650713 165 167 162
-0.386655 -0.033514 0.651467 164 166 161
-0.383092 -0.035883 0.652163 164 166 163
-0.379519 -0.038177 0.652834 165 167 162
-0.376117 -0.039371 0.653151 164 166 161
-0.372609 -0.041076 0.653633 163 165 160
-0.369119 -0.042579 0.654049 162 164 161
-0.365622 -0.044026 0.654447 162 164 161
-0.362085 -0.045589 0.654882 162 164 159
-0.358595 -0.046823 0.655211 171 173 168
-0.355013 -0.048443 0.655663 172 174 169
-0.351331 -0.050468 0.656245 168 170 165
-0.347639 -0.052438 0.656808 164 166 161
-0.343931 -0.054384 0.657364 156 158 153
-0.340413 -0.055331 0.657599 150 152 147
-0.336753 -0.056877 0.658026 145 147 144
-0.333072 -0.058433 0.658456 144 146 143
-0.329294 -0.060345 0.658998 144 146 143
-0.325682 -0.061425 0.659275 143 143 141
-0.321862 -0.063348 0.659821 145 146 141
-0.318712 -0.062292 0.659414 141 140 136
-0.317688 -0.052190 0.656118 127 126 122
-0.317194 -0.040129 0.652197 189 182 174
-0.315002 -0.035401 0.650620 174 167 159
-0.312025 -0.033973 0.650096 184 179 176
-0.308966 -0.032883 0.649680 162 160 161
-0.305728 -0.032501 0.649490 156 154 155
-0.302186 -0.033284 0.649672 158 157 153
-0.299072 -0.032373 0.649313 178 177 173
-0.296202 -0.030526 0.648656 164 161 156
-0.293958 -0.026358 0.647259 149 148 144
-0.291262 -0.023941 0.646420 161 160 155
-0.288336 -0.022398 0.645860 162 162 154
-0.285530 -0.020435 0.645167 209 209 199
-0.282936 -0.017742 0.644241 187 188 180
-0.280062 -0.016071 0.643641 179 180 174
-0.277655 -0.012797 0.642530 177 178 173
-0.274563 -0.011921 0.642183 179 179 177
-0.271720 -0.010199 0.641567 147 148 143
-0.268428 -0.009994 0.641433 150 147 142
-0.265318 -0.009167 0.641102 155 150 146
-0.262465 -0.007496 0.640502 239 237 238
-0.259235 -0.007053 0.640292 165 168 173
-0.255029 -0.009705 0.641067 224 229 235
-0.251916 -0.008826 0.640718 161 165 168
-0.249569 -0.005564 0.639613 231 231 229
-0.246743 -0.003821 0.638990 135 137 132
-0.243522 -0.003298 0.638755 147 149 146
-0.239505 -0.005156 0.639276 166 166 166
-0.234930 -0.008606 0.640301 146 145 143
-0.230007 -0.012983 0.641620 173 173 165
-0.223499 -0.021852 0.644363 178 180 169
-0.215745 -0.034091 0.648174 124 125 119
-0.159699 -0.160504 0.688021 174 164 154
-0.152823 -0.168271 0.690399 173 163 153
-0.148056 -0.170094 0.690893 175 163 151
-0.142518 -0.173937 0.692026 175 163 151
-0.136758 -0.178269 0.693314 179 165 156
-0.131389 -0.181449 0.694236 179 165 156
-0.126031 -0.184514 0.695120 175 161 152
-0.120462 -0.188037 0.696149 178 164 155
-0.115083 -0.190977 0.696993 178 164 155
-0.109705 -0.193833 0.697809 179 165 156
-0.104421 -0.196368 0.698524 180 166 157
-0.098932 -0.199340 0.699376 182 168 159
-0.093655 -0.201706 0.700035 180 166 157
-0.087734 -0.205578 0.701170 180 166 157
-0.081036 -0.211233 0.702868 179 165 156
-0.074631 -0.216053 0.704300 179 162 154
-0.068214 -0.220786 0.705704 179 162 154
-0.061840 -0.225306 0.707039 179 162 154
-0.055323 -0.230050 0.708445 176 162 153
-0.049077 -0.234056 0.709617 175 161 152
-0.042546 -0.238617 0.710963 174 160 151
-0.035923 -0.243280 0.712340 172 159 151
-0.029193 -0.248074 0.713757 171 158 150
-0.022404 -0.252888 0.715180 169 156 150
-0.015888 -0.256990 0.716377 166 155 149
-0.009237 -0.261292 0.717637 164 153 147
-0.002530 -0.265614 0.718901 160 151 144
0.004480 -0.270487 0.720339 160 151 144
0.011524 -0.275327 0.721764 158 151 143
0.018778 -0.280500 0.723294 159 152 144
0.026225 -0.285967 0.724915 156 152 143
0.033677 -0.291327 0.726501 158 154 143
0.041399 -0.297128 0.728225 158 154 143
0.049220 -0.303011 0.729973 158 154 145
0.057414 -0.309527 0.731919 158 155 148
0.065445 -0.315581 0.733719 155 152 147
0.073529 -0.321619 0.735512 137 136 132
0.082109 -0.328514 0.737573 82 80 81
0.090769 -0.335428 0.739638 47 47 47
0.099925 -0.343171 0.741962 45 45 47
0.109723 -0.352007 0.744628 43 44 48
0.119532 -0.360696 0.747245 43 44 49
0.128507 -0.367637 0.749313 43 44 49
0.137667 -0.374790 0.751446 45 46 51
0.146434 -0.381073 0.753304 46 47 52
0.155699 -0.388153 0.755412 44 47 52
0.164959 -0.395091 0.757473 45 48 53
0.173555 -0.400683 0.759111 45 46 51
0.182282 -0.406399 0.760786 47 48 53
0.190619 -0.411303 0.762206 48 49 54
0.198886 -0.415979 0.763554 47 48 53
0.206354 -0.419143 0.764428 44 44 52
0.213813 -0.422218 0.765273 32 32 40
0.221374 -0.425402 0.766152 34 34 42
0.227640 -0.426265 0.766304 44 44 52
0.235228 -0.429368 0.767156 42 42 50
0.244422 -0.435140 0.768840 32 32 40
0.254930 -0.443029 0.771184 40 40 48
0.266044 -0.451795 0.773800 47 48 53
0.279007 -0.463498 0.777330 46 47 52
0.291549 -0.474306 0.780579 44 45 50
0.304763 -0.486039 0.784115 50 51 56
0.314737 -0.492284 0.785936 63 64 69
0.322663 -0.495091 0.786685 70 69 74
0.331628 -0.499506 0.787934 75 74 79
0.342456 -0.506812 0.790083 75 74 79
0.353333 -0.514067 0.792213 72 71 76
0.364031 -0.520912 0.794215 73 72 77
0.372849 -0.524692 0.795261 62 61 66
0.379147 -0.524474 0.795062 60 59 64
0.393151 -0.536133 0.798557 55 54 59
0.399937 -0.536538 0.798550 57 57 57
0.400982 -0.528167 0.795815 56 55 51
0.295324 -0.299802 0.723921 224 220 208
0.295917 -0.292623 0.721581 226 222 210
0.297498 -0.286926 0.719702 218 215 200
0.300835 -0.283765 0.718609 223 217 203
0.305541 -0.282550 0.718119 223 216 200
0.309333 -0.280053 0.717232 223 216 200
0.314781 -0.279865 0.717060 225 216 199
0.319542 -0.278712 0.716590 224 217 199
0.324666 -0.278051 0.716271 225 218 200
0.328284 -0.275329 0.715315 225 218 200
0.332000 -0.272755 0.714404 224 219 200
0.336275 -0.270945 0.713730 223 217 201
0.340354 -0.268875 0.712976 223 217 201
0.344024 -0.266270 0.712057 224 218 204
0.350117 -0.266870 0.712127 222 219 204
0.742056 -0.710819 0.848093 121 117 106
0.749445 -0.710135 0.847721 126 122 111
0.756397 -0.708889 0.847175 131 127 116
0.759692 -0.703103 0.845232 131 127 118
0.762388 -0.696623 0.843076 130 126 117
0.766801 -0.692295 0.841583 132 127 121
0.769814 -0.686291 0.839575 131 126 120
0.777040 -0.685425 0.839147 134 129 123
0.782978 -0.682995 0.838238 134 127 121
0.789822 -0.681651 0.837663 138 131 125
0.794143 -0.677302 0.836164 137 132 126
0.800355 -0.675210 0.835360 138 133 127
0.805367 -0.671710 0.834123 140 135 129
0.810972 -0.668917 0.833103 142 137 131
0.816679 -0.666249 0.832122 142 137 131
0.823052 -0.664353 0.831377 143 139 130
0.827389 -0.660123 0.829917 146 142 133
0.829731 -0.653644 0.827769 148 144 135
0.834799 -0.650303 0.826582 154 147 139
0.839789 -0.646886 0.825373 149 145 136
0.845410 -0.644192 0.824385 153 149 140
0.852106 -0.642699 0.823764 149 146 137
0.858635 -0.641014 0.823085 132 129 122
0.866713 -0.641028 0.822925 97 96 94
0.875238 -0.641506 0.822907 50 48 51
0.887848 -0.646397 0.824236 26 25 31
0.900366 -0.651110 0.825509 19 20 25
0.916998 -0.660169 0.828108 15 15 23
0.932818 -0.668232 0.830400 14 14 22
0.948034 -0.675538 0.832459 14 15 20
0.962281 -0.681713 0.834171 14 15 20
0.973518 -0.684628 0.834887 15 16 21
0.984121 -0.686824 0.835383 14 15 20
0.992468 -0.686623 0.835148 14 15 19
1.001724 -0.687340 0.835192 15 16 21
1.008885 -0.685871 0.834570 15 16 21
1.012540 -0.680807 0.832853 15 16 21
-0.574087 0.143143 0.600479 165 170 176
-0.572038 0.138053 0.602107 164 169 173
-0.569773 0.138455 0.601932 166 171 175
-0.567594 0.135943 0.602712 167 170 175
-0.565441 0.131744 0.604046 169 170 172
-0.563257 0.127575 0.605370 175 176 171
-0.561172 0.117459 0.608643 177 177 169
-0.555829 -0.017435 0.652719 44 29 26
-0.553114 -0.021097 0.653866 56 35 30
-0.550347 -0.021013 0.653786 85 56 48
-0.547571 -0.019903 0.653369 99 67 54
-0.544797 -0.022333 0.654111 109 72 54
-0.542009 -0.022542 0.654126 125 84 64
-0.539217 -0.022103 0.653929 127 85 61
-0.536419 -0.021967 0.653830 132 86 63
-0.533616 -0.021817 0.653728 140 90 65
-0.530823 -0.020690 0.653305 153 103 76
-0.528014 -0.020475 0.653180 147 97 70
-0.525182 -0.021165 0.653352 136 89 61
-0.522354 -0.021225 0.653317 137 90 62
-0.519502 -0.021982 0.653510 142 92 65
-0.516584 -0.024596 0.654311 136 89 61
-0.513689 -0.025849 0.654665 138 91 63
-0.510812 -0.026197 0.654724 131 85 59
-0.507860 -0.028260 0.655343 134 88 62
-0.504960 -0.028625 0.655407 129 85 60
-0.501993 -0.030314 0.655903 129 85 60
-0.499046 -0.031231 0.656147 131 87 62
-0.496110 -0.031702 0.656245 128 84 59
-0.493157 -0.032312 0.656388 133 89 64
-0.490136 -0.033946 0.656865 135 91 66
-0.487139 -0.034898 0.657119 138 94 69
-0.484112 -0.036140 0.657468 135 91 66
-0.481011 -0.038275 0.658107 134 90 65
-0.477935 -0.039767 0.658537 132 90 66
-0.474705 -0.043143 0.659580 137 95 71
-0.471492 -0.045946 0.660437 136 94 70
-0.468097 -0.050744 0.661943 123 88 68
-0.464739 -0.054640 0.663154 97 69 57
-0.461220 -0.060059 0.664861 43 25 21
-0.457597 -0.066180 0.666797 21 15 17
-0.454382 -0.067359 0.667121 11 10 15
-0.451593 -0.063917 0.665940 16 15 20
-0.448970 -0.058933 0.664257 18 17 22
-0.446244 -0.055215 0.662987 20 19 25
-0.443561 -0.051239 0.661634 26 27 32
-0.440782 -0.048333 0.660629 33 34 39
-0.437882 -0.046625 0.660013 35 38 45
-0.434998 -0.044816 0.659366 34 39 45
-0.432103 -0.043141 0.658761 34 38 47
-0.429198 -0.041585 0.658196 35 39 48
-0.426136 -0.041312 0.658048 35 39 48
-0.423278 -0.039407 0.657369 33 37 46
-0.420702 -0.035374 0.655999 93 93 101
-0.418125 -0.031504 0.654682 112 112 120
-0.415356 -0.029163 0.653862 138 139 144
-0.412643 -0.026486 0.652933 154 155 159
-0.409688 -0.025572 0.652577 160 162 161
-0.406805 -0.024157 0.652058 169 171 168
-0.403695 -0.024275 0.652037 168 170 165
-0.400300 -0.026196 0.652601 169 171 166
-0.396798 -0.028671 0.653344 168 170 165
-0.393308 -0.030934 0.654018 168 170 165
-0.389845 -0.032887 0.654592 165 167 162
-0.386229 -0.035643 0.655425 165 167 162
-0.382624 -0.038181 0.656187 166 168 163
-0.379037 -0.040478 0.656870 165 167 162
-0.375618 -0.041695 0.657203 165 167 162
-0.372099 -0.043384 0.657689 166 168 163
-0.368577 -0.044984 0.658145 163 165 162
-0.365055 -0.046491 0.658571 162 164 159
-0.361540 -0.047868 0.658954 165 167 162
-0.357998 -0.049296 0.659354 169 171 166
-0.354404 -0.050905 0.659812 168 171 164
-0.350725 -0.052841 0.660375 169 170 165
-0.346990 -0.054957 0.660996 166 167 162
-0.343188 -0.057285 0.661686 157 158 153
-0.339621 -0.058387 0.661978 149 151 146
-0.335976 -0.059780 0.662364 147 149 144
-0.332221 -0.061603 0.662890 146 148 145
-0.328411 -0.063582 0.663464 145 147 144
-0.324695 -0.065046 0.663872 145 145 143
-0.320871 -0.066907 0.664409 143 144 139
-0.317748 -0.065651 0.663937 143 142 138
-0.316578 -0.056102 0.660787 142 141 136
-0.316513 -0.042177 0.656226 186 179 169
-0.315037 -0.034443 0.653664 181 172 165
-0.312096 -0.032855 0.653088 192 184 181
-0.309292 -0.030736 0.652340 174 170 169
-0.306269 -0.029513 0.651881 169 168 166
-0.302859 -0.029797 0.651909 179 178 174
-0.299792 -0.028728 0.651500 172 171 167
-0.296854 -0.027171 0.650933 153 152 148
-0.294292 -0.024219 0.649917 149 148 144
-0.291595 -0.021813 0.649077 158 157 152
-0.288722 -0.020081 0.648455 165 165 157
-0.285846 -0.018382 0.647843 180 181 173
-0.283204 -0.015862 0.646967 190 191 185
-0.280370 -0.014056 0.646322 179 180 175
-0.277404 -0.012724 0.645828 179 180 175
-0.274768 -0.010270 0.644974 173 174 169
-0.272070 -0.008062 0.644199 152 155 146
-0.268952 -0.007281 0.643883 140 140 132
-0.265861 -0.006401 0.643536 148 145 140
-0.263508 -0.003116 0.642415 166 164 165
-0.260815 -0.000978 0.641663 184 187 192
-0.257271 -0.001571 0.641789 217 224 230
-0.254004 -0.001254 0.641622 209 213 214
-0.250512 -0.001618 0.641674 138 139 133
-0.247553 -0.000314 0.641190 146 147 139
-0.244059 -0.000640 0.641230 147 148 142
-0.239800 -0.003231 0.641997 151 152 147
-0.235126 -0.006975 0.643133 155 156 150
-0.230052 -0.011789 0.644612 166 167 161
-0.223450 -0.020913 0.647474 159 160 155
-0.216721 -0.030181 0.650380 139 141 140
-0.158003 -0.163949 0.693062 171 161 151
-0.151216 -0.171403 0.695373 172 162 152
-0.146764 -0.172311 0.695585 175 162 153
-0.141311 -0.175877 0.696648 176 163 154
-0.135428 -0.180490 0.698046 176 162 153
-0.130080 -0.183568 0.698951 176 162 153
-0.124689 -0.186672 0.699864 176 162 153
-0.119115 -0.190161 0.700900 179 165 156
-0.113714 -0.193112 0.701763 179 165 156
-0.108316 -0.195971 0.702595 179 165 156
-0.102976 -0.198602 0.703354 180 166 157
-0.097492 -0.201515 0.704203 178 164 155
-0.092092 -0.204138 0.704958 178 164 155
-0.086181 -0.207936 0.706089 178 164 155
-0.079616 -0.213218 0.707693 177 163 154
-0.073109 -0.218238 0.709212 179 162 154
-0.066597 -0.223148 0.710695 175 161 152
-0.060130 -0.227838 0.712106 174 160 151
-0.053482 -0.232838 0.713616 173 159 150
-0.047139 -0.237015 0.714862 172 159 151
-0.040543 -0.241670 0.716260 170 157 149
-0.033852 -0.246432 0.717691 169 156 148
-0.027023 -0.251394 0.719185 164 153 147
-0.020105 -0.256438 0.720705 164 153 147
-0.013477 -0.260731 0.721983 161 152 145
-0.006746 -0.265146 0.723300 160 151 144
0.000058 -0.269617 0.724633 158 151 143
0.007198 -0.274709 0.726164 158 151 143
0.014480 -0.279990 0.727754 154 149 143
0.021913 -0.285474 0.729407 156 151 145
0.029444 -0.291047 0.731087 154 151 144
0.036923 -0.296390 0.732694 157 154 145
0.044503 -0.301828 0.734329 156 153 144
0.052270 -0.307531 0.736048 148 148 140
0.060523 -0.314099 0.738040 119 118 114
0.068638 -0.320255 0.739900 62 61 59
0.076863 -0.326504 0.741789 47 47 49
0.085377 -0.333198 0.743818 49 48 53
0.094885 -0.341707 0.746422 42 43 48
0.104827 -0.350894 0.749240 43 44 49
0.114030 -0.358484 0.751549 44 45 50
0.123094 -0.365662 0.753726 45 46 51
0.132453 -0.373262 0.756035 46 47 52
0.141736 -0.380570 0.758250 45 46 51
0.149997 -0.385830 0.759814 46 47 52
0.158638 -0.391687 0.761566 46 47 52
0.168017 -0.398783 0.763710 47 48 53
0.177001 -0.405023 0.765581 48 49 54
0.185615 -0.410472 0.767200 45 46 51
0.194010 -0.415419 0.768659 48 49 54
0.202261 -0.420006 0.770003 47 48 53
0.209788 -0.423218 0.770911 31 31 39
0.217237 -0.426218 0.771750 36 36 44
0.225268 -0.430162 0.772887 44 44 52
0.232169 -0.432068 0.773379 37 37 45
0.240316 -0.436059 0.774530 34 34 42
0.250094 -0.442747 0.776532 31 31 39
0.260629 -0.450591 0.778899 42 43 48
0.271807 -0.459374 0.781561 45 46 51
0.285052 -0.471451 0.785261 45 46 50
0.297274 -0.481634 0.788362 45 46 50
0.309438 -0.491547 0.791375 57 58 62
0.319159 -0.497308 0.793075 63 64 68
0.328867 -0.502938 0.794732 74 75 79
0.341360 -0.512943 0.797769 97 96 101
0.384946 -0.551572 0.809583 57 55 58
0.391647 -0.551798 0.809528 54 52 55
0.393881 -0.545061 0.807279 55 53 54
0.280789 -0.301036 0.729531 220 215 196
0.281280 -0.293613 0.727090 219 214 195
0.283632 -0.288965 0.725523 221 215 201
0.288361 -0.287783 0.725045 220 214 198
0.290133 -0.282364 0.723236 221 215 199
0.294017 -0.279998 0.722387 222 216 200
0.297264 -0.276743 0.721258 221 215 199
0.301599 -0.275037 0.720616 222 215 197
0.304840 -0.271806 0.719496 223 214 197
0.309789 -0.270964 0.719125 224 215 198
0.314416 -0.269668 0.718612 224 217 199
0.320527 -0.270397 0.718733 224 217 199
0.324382 -0.268033 0.717885 224 217 199
0.327593 -0.264811 0.716768 224 217 201
0.332272 -0.263577 0.716274 223 217 201
0.336915 -0.262292 0.715764 223 217 201
0.340489 -0.259587 0.714810 224 218 202
0.344053 -0.256884 0.713856 224 218 202
0.348395 -0.255212 0.713225 223 217 201
0.352043 -0.252641 0.712313 226 220 204
0.358394 -0.253570 0.712495 225 219 203
0.361483 -0.250284 0.711359 227 221 205
0.773094 -0.697161 0.849809 130 126 117
0.778654 -0.694205 0.848734 128 124 115
0.787350 -0.695043 0.848842 133 128 122
0.793410 -0.692682 0.847952 133 128 122
0.796558 -0.686854 0.845983 135 130 124
0.798608 -0.679767 0.843622 134 129 123
0.804428 -0.677178 0.842663 141 136 130
0.809094 -0.673244 0.841285 138 133 127
0.815958 -0.671889 0.840709 141 136 130
0.822321 -0.669944 0.839950 143 138 132
0.829367 -0.668782 0.839434 144 140 131
0.833016 -0.663723 0.837707 145 141 132
0.835312 -0.657160 0.835513 148 144 135
0.840376 -0.653776 0.834308 148 143 137
0.845540 -0.650519 0.833142 151 146 140
0.852589 -0.649381 0.832634 147 144 137
0.860810 -0.649532 0.832525 125 122 117
0.866688 -0.647070 0.831606 92 91 89
0.877212 -0.649712 0.832269 47 47 47
0.886311 -0.650744 0.832432 21 20 25
0.903281 -0.660285 0.835231 17 16 24
0.915919 -0.665017 0.836538 14 14 22
0.931496 -0.672825 0.838796 14 14 22
0.943434 -0.676636 0.839815 14 15 20
0.955498 -0.680511 0.840852 14 15 20
0.967864 -0.684638 0.841967 14 15 20
0.977134 -0.685445 0.842053 14 15 20
0.987410 -0.687266 0.842452 15 16 21
0.995840 -0.687127 0.842244 16 17 22
1.002866 -0.685515 0.841581 15 16 21
1.009422 -0.683414 0.840767 15 16 21
1.016595 -0.681940 0.840147 16 17 22
-0.576465 0.144323 0.602615 163 168 174
-0.574325 0.142084 0.603317 164 169 175
-0.572272 0.136971 0.604971 163 168 172
-0.570014 0.136956 0.604935 165 170 176
-0.567813 0.134904 0.605574 165 168 175
-0.565642 0.131161 0.606773 169 170 174
-0.563423 0.128276 0.607688 174 174 172
-0.561325 0.118794 0.610786 174 175 167
-0.556038 -0.018043 0.655955 31 21 20
-0.553328 -0.022855 0.657498 42 28 27
-0.550556 -0.023401 0.657628 49 30 26
-0.547769 -0.022436 0.657259 62 37 30
-0.544984 -0.024689 0.657954 80 51 37
-0.542185 -0.024554 0.657858 96 60 44
-0.539384 -0.023824 0.657566 119 78 58
-0.536580 -0.023272 0.657333 130 85 64
-0.533772 -0.022856 0.657145 137 89 66
-0.530971 -0.021715 0.656717 139 89 62
-0.528150 -0.021772 0.656685 145 96 66
-0.525307 -0.022600 0.656907 149 102 72
-0.522474 -0.022504 0.656824 148 99 69
-0.519613 -0.023269 0.657026 146 96 69
-0.516685 -0.025979 0.657870 142 95 67
-0.513768 -0.027617 0.658359 144 97 69
-0.510882 -0.027953 0.658418 131 85 59
-0.507934 -0.029671 0.658933 134 88 62
-0.505011 -0.030369 0.659111 127 83 58
-0.502040 -0.031923 0.659572 127 83 58
-0.499083 -0.032852 0.659825 133 89 64
-0.496143 -0.033209 0.659890 126 82 57
-0.493193 -0.033613 0.659971 123 81 57
-0.490170 -0.035121 0.660415 119 77 53
-0.487164 -0.036090 0.660681 123 81 57
-0.484100 -0.037765 0.661180 128 86 62
-0.480999 -0.039754 0.661782 134 92 68
-0.477924 -0.041096 0.662170 132 90 66
-0.474668 -0.044726 0.663312 133 91 67
-0.471436 -0.047653 0.664222 131 89 65
-0.468086 -0.051750 0.665517 134 93 71
-0.464710 -0.055773 0.666787 114 81 64
-0.461133 -0.061773 0.668707 71 48 42
-0.457529 -0.067566 0.670558 37 25 25
-0.454234 -0.069515 0.671144 13 8 12
-0.451456 -0.065828 0.669874 15 15 17
-0.448792 -0.061144 0.668276 18 17 22
-0.446024 -0.057716 0.667092 20 17 24
-0.443344 -0.053587 0.665678 24 25 30
-0.440519 -0.050992 0.664769 31 32 37
-0.437624 -0.049118 0.664097 33 36 41
-0.434751 -0.047090 0.663374 32 37 43
-0.431831 -0.045524 0.662803 34 38 47
-0.428894 -0.044122 0.662286 33 37 46
-0.425845 -0.043638 0.662071 34 38 47
-0.422943 -0.041978 0.661470 36 40 49
-0.420280 -0.038515 0.660276 56 56 64
-0.417800 -0.033795 0.658670 107 107 115
-0.415112 -0.030775 0.657623 129 130 135
-0.412430 -0.027806 0.656592 146 147 151
-0.409474 -0.026830 0.656216 158 159 161
-0.406527 -0.025788 0.655818 166 168 165
-0.403394 -0.025982 0.655826 168 170 165
-0.400000 -0.027824 0.656374 166 171 165
-0.396495 -0.030253 0.657114 168 170 165
-0.392989 -0.032541 0.657808 166 168 163
-0.389480 -0.034717 0.658464 166 168 163
-0.385874 -0.037336 0.659265 166 168 163
-0.382265 -0.039833 0.660026 166 168 163
-0.378682 -0.042038 0.660691 165 167 162
-0.375255 -0.043242 0.661027 166 168 163
-0.371741 -0.044845 0.661494 166 168 163
-0.368207 -0.046450 0.661961 165 167 162
-0.364686 -0.047895 0.662376 166 168 163
-0.361180 -0.049167 0.662733 166 168 163
-0.357611 -0.050685 0.663171 167 170 163
-0.354064 -0.051999 0.663541 169 172 165
-0.350385 -0.053888 0.664100 170 171 165
-0.346631 -0.056044 0.664746 166 167 161
-0.342807 -0.058430 0.665466 158 159 154
-0.339211 -0.059625 0.665796 152 153 147
-0.335561 -0.060996 0.666184 150 151 146
-0.331806 -0.062765 0.666701 147 149 144
-0.327991 -0.064722 0.667279 145 147 144
-0.324174 -0.066590 0.667829 144 146 143
-0.320210 -0.069010 0.668558 143 143 141
-0.316866 -0.068651 0.668379 145 146 141
-0.315493 -0.059899 0.665459 145 144 140
-0.315834 -0.044205 0.660273 171 168 159
-0.315121 -0.033280 0.656647 186 181 175
-0.312486 -0.030445 0.655661 188 183 180
-0.309519 -0.028989 0.655126 196 190 190
-0.306529 -0.027636 0.654625 190 185 182
-0.303515 -0.026382 0.654155 181 177 174
-0.300468 -0.025259 0.653729 174 171 166
-0.297315 -0.024541 0.653435 165 164 159
-0.294504 -0.022534 0.652720 164 163 159
-0.291784 -0.020214 0.651903 151 150 145
-0.288865 -0.018653 0.651335 167 166 161
-0.285973 -0.017008 0.650738 166 167 161
-0.283259 -0.014742 0.649940 162 163 158
-0.280364 -0.013144 0.649359 150 150 148
-0.277379 -0.011869 0.648883 153 154 149
-0.274872 -0.008965 0.647877 145 148 141
-0.272222 -0.006593 0.647045 151 154 145
-0.269227 -0.005397 0.646595 161 164 157
-0.266029 -0.004874 0.646364 147 148 143
-0.263753 -0.001338 0.645154 212 214 213
-0.260950 0.000444 0.644513 221 225 226
-0.257631 0.000570 0.644412 186 192 192
-0.254375 0.000915 0.644239 140 145 141
-0.251006 0.000927 0.644174 140 145 138
-0.247961 0.001959 0.643778 144 147 140
-0.244233 0.000916 0.644056 150 153 146
-0.239968 -0.001687 0.644840 152 155 148
-0.235257 -0.005536 0.646028 155 157 152
-0.230147 -0.010445 0.647560 162 164 161
-0.223559 -0.019514 0.650441 190 190 190
-0.216535 -0.029615 0.653655 206 206 208
-0.156808 -0.165988 0.697687 170 160 150
-0.150142 -0.173059 0.699906 170 160 150
-0.145499 -0.174448 0.700282 172 159 150
-0.140074 -0.177886 0.701321 171 158 149
-0.134098 -0.182699 0.702805 173 160 151
-0.128803 -0.185590 0.703666 175 162 153
-0.123395 -0.188694 0.704595 174 161 152
-0.117846 -0.192071 0.705612 175 161 152
-0.112454 -0.194955 0.706469 176 162 153
-0.106929 -0.198092 0.707407 177 163 154
-0.101550 -0.200775 0.708197 178 164 155
-0.096133 -0.203478 0.708993 177 162 155
-0.090517 -0.206590 0.709921 177 162 155
-0.084481 -0.210643 0.711153 176 161 154
-0.077843 -0.216047 0.712821 176 161 154
-0.071293 -0.221115 0.714379 173 158 151
-0.064726 -0.226102 0.715910 173 158 151
-0.058320 -0.230593 0.717280 173 158 151
-0.051550 -0.235823 0.718888 170 157 149
-0.045102 -0.240190 0.720216 168 155 147
-0.038462 -0.244889 0.721651 165 154 148
-0.031757 -0.249626 0.723096 163 152 146
-0.024838 -0.254732 0.724661 162 153 146
-0.017843 -0.259891 0.726241 158 149 142
-0.011100 -0.264379 0.727604 158 151 143
-0.004137 -0.269241 0.729087 156 149 141
0.002772 -0.273877 0.730495 153 148 142
0.009998 -0.279089 0.732089 152 147 141
0.017490 -0.284751 0.733827 156 153 148
0.024832 -0.289975 0.735422 154 151 146
0.032432 -0.295622 0.737153 153 149 146
0.040195 -0.301488 0.738953 143 142 140
0.048035 -0.307388 0.740763 99 99 97
0.056060 -0.313543 0.742654 51 51 51
0.064490 -0.320387 0.744766 50 50 50
0.072630 -0.326511 0.746645 47 48 50
0.081269 -0.333503 0.748802 44 45 49
0.090419 -0.341363 0.751237 43 43 51
0.099968 -0.349851 0.753872 43 43 51
0.109225 -0.357610 0.756272 45 46 51
0.118124 -0.364528 0.758399 46 47 52
0.127130 -0.371515 0.760548 46 47 52
0.135932 -0.377976 0.762526 46 47 52
0.144784 -0.384405 0.764493 45 46 51
0.152964 -0.389454 0.766016 47 48 53
0.161693 -0.395415 0.767830 46 47 52
0.171176 -0.402641 0.770049 46 47 52
0.180314 -0.409100 0.772021 47 48 53
0.188698 -0.414072 0.773514 47 48 53
0.196831 -0.418490 0.774829 46 47 52
0.205309 -0.423430 0.776310 42 43 48
0.212822 -0.426565 0.777211 30 30 38
0.220180 -0.429354 0.778001 35 35 43
0.228197 -0.433222 0.779136 43 43 51
0.235301 -0.435431 0.779738 39 39 47
0.243661 -0.439734 0.781011 26 26 34
0.253401 -0.446298 0.783006 33 34 39
0.263847 -0.453931 0.785342 43 44 49
0.274990 -0.462595 0.788007 43 44 48
0.287899 -0.474049 0.791563 44 45 49
0.301058 -0.485723 0.795187 62 62 64
0.313441 -0.495929 0.798340 134 134 134
0.326041 -0.506315 0.801548 93 93 93
0.395052 -0.575606 0.823223 72 70 71
0.265202 -0.292407 0.731888 219 213 197
0.266033 -0.285480 0.729582 219 213 197
0.269843 -0.282995 0.728691 219 213 197
0.274428 -0.281653 0.728164 220 214 198
0.278487 -0.279545 0.727394 220 212 199
0.282540 -0.277437 0.726624 220 213 197
0.285742 -0.274120 0.725468 220 213 197
0.290071 -0.272426 0.724830 221 215 199
0.293935 -0.270077 0.723983 221 214 196
0.297678 -0.267570 0.723086 222 215 197
0.301239 -0.264822 0.722113 221 214 196
0.306404 -0.264306 0.721849 223 214 199
0.310866 -0.262811 0.721274 223 216 200
0.316066 -0.262322 0.721018 223 216 200
0.319739 -0.259749 0.720101 223 216 200
0.322863 -0.256451 0.718954 224 217 201
0.326918 -0.254419 0.718209 222 216 200
0.331283 -0.252806 0.717596 223 217 201
0.334618 -0.249833 0.716553 223 217 201
0.338224 -0.247235 0.715628 223 217 201
0.343529 -0.246864 0.715410 225 219 203
0.348243 -0.245714 0.714944 223 217 201
0.352387 -0.243824 0.714244 224 218 202
0.354941 -0.239903 0.712901 225 219 203
0.359419 -0.238459 0.712342 225 219 203
0.362240 -0.234917 0.711120 227 221 205
0.367988 -0.235080 0.711070 228 222 206
0.370461 -0.231130 0.709719 227 221 205
0.379025 -0.234770 0.710768 225 219 205
0.801460 -0.680304 0.850520 136 131 125
0.812007 -0.683251 0.851305 138 133 127
0.817759 -0.680534 0.850302 137 132 126
0.818033 -0.671457 0.847295 141 136 130
0.820836 -0.665383 0.845235 141 136 130
0.826646 -0.662807 0.844278 143 138 132
0.831699 -0.659372 0.843051 145 140 134
0.834882 -0.653829 0.841160 147 142 136
0.840947 -0.651577 0.840305 148 143 139
0.847400 -0.649762 0.839588 145 142 137
0.855536 -0.649819 0.839460 120 116 113
0.865235 -0.651583 0.839869 84 82 83
0.872576 -0.650703 0.839445 36 36 38
0.886676 -0.657218 0.841346 16 17 21
0.900929 -0.663800 0.843266 11 12 17
0.918068 -0.673409 0.846135 16 17 22
0.929425 -0.676654 0.847004 14 15 20
0.941810 -0.680939 0.848197 15 16 21
0.951667 -0.682456 0.848521 14 15 20
0.962140 -0.684584 0.849036 14 15 20
0.973006 -0.687076 0.849664 16 17 22
0.981345 -0.686869 0.849445 15 16 21
0.991692 -0.688730 0.849874 16 17 22
0.999133 -0.687534 0.849344 15 16 21
1.008338 -0.688145 0.849380 16 17 22
1.015307 -0.686432 0.848688 16 17 22
1.024361 -0.686838 0.848659 16 17 22
-0.576744 0.142462 0.605726 163 168 174
-0.574594 0.140257 0.606427 162 167 171
-0.572532 0.135184 0.608087 164 169 173
-0.570264 0.135202 0.608042 164 169 175
-0.568058 0.133077 0.608715 162 167 173
-0.565858 0.130095 0.609674 165 168 173
-0.563631 0.127301 0.610570 170 172 171
-0.561493 0.119450 0.613157 175 176 168
-0.553539 -0.024176 0.661004 30 21 22
-0.550757 -0.024439 0.661045 33 21 21
-0.547967 -0.024671 0.661075 53 34 28
-0.545171 -0.026669 0.661695 72 45 36
-0.542361 -0.026923 0.661733 81 49 34
-0.539549 -0.026256 0.661463 99 62 44
-0.536740 -0.024829 0.660939 122 79 60
-0.533925 -0.024184 0.660675 127 81 58
-0.531113 -0.023208 0.660302 137 87 62
-0.528285 -0.023121 0.660225 140 91 61
-0.525427 -0.024285 0.660566 150 101 71
-0.522587 -0.024099 0.660456 144 95 65
-0.519718 -0.024848 0.660657 147 97 70
-0.516790 -0.027218 0.661400 148 99 69
-0.513861 -0.028985 0.661941 145 98 70
-0.510951 -0.029737 0.662143 143 96 68
-0.508005 -0.031160 0.662568 136 90 64
-0.505071 -0.031932 0.662777 133 89 64
-0.502091 -0.033479 0.663243 129 85 60
-0.499113 -0.034647 0.663583 129 85 60
-0.496163 -0.035006 0.663653 128 84 59
-0.493201 -0.035420 0.663742 132 90 66
-0.490157 -0.037129 0.664261 124 82 58
-0.487145 -0.038015 0.664506 125 83 59
-0.484067 -0.039756 0.665036 121 79 55
-0.480947 -0.041868 0.665689 121 79 55
-0.477840 -0.043509 0.666184 129 87 63
-0.474599 -0.046758 0.667215 126 84 59
-0.471389 -0.049244 0.667991 133 91 66
-0.468041 -0.053193 0.669254 131 89 64
-0.464663 -0.057123 0.670510 119 82 63
-0.461104 -0.062802 0.672347 92 65 56
-0.457538 -0.068084 0.674051 53 39 38
-0.454165 -0.070819 0.674908 27 21 23
-0.451271 -0.068250 0.674001 12 12 14
-0.448544 -0.064074 0.672560 15 14 19
-0.445748 -0.060777 0.671411 20 17 24
-0.443081 -0.056379 0.669897 23 22 27
-0.440186 -0.054300 0.669154 29 30 35
-0.437269 -0.052477 0.668496 32 35 40
-0.434455 -0.049797 0.667553 33 38 44
-0.431598 -0.047576 0.666762 34 39 45
-0.428665 -0.046041 0.666200 35 39 48
-0.425566 -0.045870 0.666090 34 38 47
-0.422685 -0.043945 0.665399 34 38 47
-0.419890 -0.041398 0.664501 35 35 43
-0.417502 -0.035886 0.662619 107 107 115
-0.414900 -0.032155 0.661329 123 124 129
-0.412211 -0.029163 0.660284 143 144 148
-0.409234 -0.028259 0.659932 157 158 160
-0.406281 -0.027196 0.659526 164 166 163
-0.403152 -0.027301 0.659509 169 171 166
-0.399776 -0.028958 0.660005 166 171 165
-0.396263 -0.031379 0.660755 168 170 165
-0.392693 -0.034007 0.661572 167 169 164
-0.389165 -0.036236 0.662257 167 169 164
-0.385559 -0.038791 0.663050 167 169 164
-0.381965 -0.041138 0.663774 167 169 164
-0.378399 -0.043191 0.664399 168 170 165
-0.374950 -0.044461 0.664765 167 169 164
-0.371439 -0.045987 0.665216 166 169 162
-0.367898 -0.047584 0.665689 163 165 160
-0.364374 -0.048989 0.666099 164 166 161
-0.360845 -0.050333 0.666489 167 169 164
-0.357277 -0.051793 0.666916 169 172 165
-0.353735 -0.053034 0.667271 168 169 163
-0.349992 -0.055193 0.667929 168 169 163
-0.346203 -0.057470 0.668626 165 166 160
-0.342400 -0.059702 0.669307 159 160 155
-0.338808 -0.060823 0.669621 154 155 149
-0.335134 -0.062260 0.670039 153 154 148
-0.331401 -0.063881 0.670518 149 151 146
-0.327608 -0.065691 0.671058 147 149 146
-0.323645 -0.068164 0.671818 143 145 142
-0.319645 -0.070686 0.672592 144 146 143
-0.316353 -0.070053 0.672326 143 144 139
-0.314329 -0.064026 0.670278 145 146 141
-0.314778 -0.047804 0.664866 167 168 162
-0.314707 -0.034166 0.660309 131 130 126
-0.312649 -0.028954 0.658533 164 160 159
-0.309733 -0.027293 0.657929 168 163 160
-0.306901 -0.025314 0.657220 170 162 160
-0.303751 -0.024599 0.656928 167 159 156
-0.300804 -0.023099 0.656377 161 156 150
-0.297790 -0.021860 0.655912 161 156 150
-0.294941 -0.020009 0.655245 156 155 150
-0.292059 -0.018299 0.654626 152 151 146
-0.289175 -0.016613 0.654014 148 149 143
-0.286302 -0.014905 0.653394 142 143 138
-0.283430 -0.013210 0.652780 147 147 145
-0.280453 -0.011896 0.652291 140 142 141
-0.277371 -0.010952 0.651923 151 153 148
-0.274917 -0.007860 0.650849 185 188 181
-0.272327 -0.005278 0.649943 171 173 170
-0.269438 -0.003728 0.649376 214 218 217
-0.266307 -0.002984 0.649074 241 245 244
-0.264131 0.000869 0.647750 226 230 229
-0.261205 0.002247 0.647241 150 155 151
-0.257878 0.002349 0.647150 138 143 139
-0.254723 0.003010 0.646876 135 140 136
-0.251363 0.003047 0.646807 135 141 139
-0.248298 0.004009 0.646434 145 150 153
-0.244598 0.003051 0.646692 159 163 164
-0.240519 0.001003 0.647307 201 207 205
-0.235686 -0.003211 0.648633 176 182 178
-0.230519 -0.008291 0.650243 189 191 190
-0.224008 -0.017128 0.653085 190 190 190
-0.217156 -0.026730 0.656178 200 196 195
-0.155759 -0.167614 0.702206 168 158 148
-0.149606 -0.173224 0.703977 168 158 148
-0.144529 -0.175768 0.704741 171 158 149
-0.138999 -0.179451 0.705878 173 160 151
-0.133043 -0.184168 0.707353 171 158 149
-0.127761 -0.186985 0.708205 172 159 150
-0.122364 -0.190016 0.709127 171 158 149
-0.116903 -0.193129 0.710074 174 160 151
-0.111451 -0.196131 0.710985 174 160 151
-0.105731 -0.199725 0.712089 175 161 152
-0.100249 -0.202627 0.712966 174 159 152
-0.094768 -0.205444 0.713815 174 159 152
-0.088908 -0.209112 0.714941 174 159 152
-0.082654 -0.213645 0.716350 172 157 150
-0.076030 -0.218960 0.718014 172 157 150
-0.069536 -0.223838 0.719534 171 156 149
-0.062976 -0.228757 0.721066 171 156 149
-0.056422 -0.233541 0.722554 169 156 148
-0.049668 -0.238679 0.724156 167 154 146
-0.043007 -0.243483 0.725648 164 154 145
-0.036272 -0.248342 0.727158 161 152 145
-0.029577 -0.252997 0.728600 160 151 144
-0.022654 -0.258053 0.730172 158 149 144
-0.015622 -0.263237 0.731785 157 150 142
-0.008700 -0.268060 0.733280 156 149 141
-0.001421 -0.273554 0.734992 153 148 142
0.005712 -0.278609 0.736561 155 150 144
0.013066 -0.284025 0.738246 152 149 144
0.020828 -0.290190 0.740174 152 148 145
0.028570 -0.296179 0.742044 131 130 126
0.036371 -0.302166 0.743913 75 74 72
0.044374 -0.308445 0.745875 44 43 48
0.052306 -0.314445 0.747746 50 51 56
0.060350 -0.320547 0.749648 46 47 52
0.069062 -0.327873 0.751949 46 47 52
