0.719078 -0.784243 0.839943 133 132 127
0.718854 -0.774080 0.833845 132 131 126
0.722032 -0.770515 0.831143 135 134 129
0.724671 -0.765975 0.827945 135 135 127
0.727744 -0.762307 0.825198 153 153 143
0.730160 -0.757459 0.821853 182 182 172
0.730148 -0.748165 0.816243 178 178 168
-0.189895 -0.121140 0.600061 150 149 144
-0.187270 -0.122745 0.600581 151 150 145
-0.184608 -0.124152 0.600976 152 153 148
-0.181975 -0.125857 0.601556 154 155 150
-0.179309 -0.127388 0.602025 154 155 150
-0.176698 -0.129462 0.602833 155 156 151
-0.174013 -0.131028 0.603320 156 157 152
-0.171418 -0.133479 0.604360 156 157 152
-0.168718 -0.135121 0.604891 156 157 152
-0.166091 -0.137557 0.605916 156 157 152
-0.163422 -0.139743 0.606782 158 157 153
-0.160702 -0.141563 0.607418 157 156 152
-0.157942 -0.143093 0.607870 157 156 152
-0.155154 -0.144426 0.608197 157 156 152
-0.152440 -0.146692 0.609104 157 156 152
-0.149642 -0.148163 0.609514 156 155 151
-0.146848 -0.149793 0.610020 156 155 151
-0.144051 -0.151532 0.610593 156 155 151
-0.141185 -0.152521 0.610698 156 155 151
-0.138337 -0.153844 0.611009 156 155 151
-0.135484 -0.155216 0.611349 158 154 151
-0.132673 -0.157377 0.612176 158 154 151
-0.129799 -0.158755 0.612516 157 153 150
-0.126914 -0.160103 0.612836 158 154 151
-0.124024 -0.161545 0.613212 157 153 150
-0.121105 -0.162608 0.613352 157 153 150
-0.118187 -0.163828 0.613589 158 153 150
-0.115256 -0.164969 0.613775 158 153 150
-0.112321 -0.166177 0.614001 158 153 150
-0.109370 -0.167195 0.614109 157 152 149
-0.106417 -0.168354 0.614302 157 152 149
-0.103473 -0.170003 0.614794 159 151 149
-0.100512 -0.171470 0.615174 159 151 149
-0.097536 -0.172760 0.615443 160 152 150
-0.094550 -0.173975 0.615664 159 151 149
-0.091571 -0.175992 0.616374 158 150 148
-0.088572 -0.177568 0.616813 156 148 146
-0.085554 -0.178554 0.616890 158 150 148
-0.082537 -0.180284 0.617419 157 149 147
-0.079505 -0.181549 0.617663 157 149 147
-0.076464 -0.182697 0.617834 156 148 146
-0.073416 -0.183561 0.617832 154 146 144
-0.070358 -0.185362 0.618397 154 144 143
-0.067289 -0.187103 0.618923 155 145 144
-0.064202 -0.189415 0.619794 154 144 143
-0.061105 -0.191390 0.620458 155 145 144
-0.058001 -0.192903 0.620840 154 144 143
-0.054896 -0.193991 0.620964 154 144 143
-0.051787 -0.194888 0.620971 153 143 142
-0.048631 -0.197365 0.621930 153 143 142
-0.045466 -0.199614 0.622749 153 143 141
-0.042300 -0.201390 0.623280 153 143 141
-0.039100 -0.203787 0.624183 153 143 141
-0.035879 -0.206333 0.625172 151 141 139
-0.032650 -0.208653 0.626023 152 142 140
-0.029409 -0.210895 0.626825 152 142 140
-0.026153 -0.213133 0.627621 151 141 139
-0.022900 -0.215015 0.628201 152 142 140
-0.019665 -0.216359 0.628458 151 141 139
-0.016397 -0.218115 0.628960 151 141 139
-0.013120 -0.219811 0.629423 152 142 140
-0.009854 -0.221169 0.629683 150 140 138
-0.006585 -0.222448 0.629895 150 140 138
-0.003332 -0.223372 0.629893 149 141 138
-0.000061 -0.224450 0.629982 149 141 138
0.003189 -0.225175 0.629860 149 141 138
0.006490 -0.226457 0.630068 148 140 137
0.009848 -0.228305 0.630610 147 139 136
0.013202 -0.229958 0.631034 147 139 136
0.016566 -0.231611 0.631456 148 140 137
0.019946 -0.233301 0.631898 148 140 137
0.023338 -0.235004 0.632346 146 138 136
0.026738 -0.236677 0.632774 146 138 136
0.030187 -0.238699 0.633406 145 137 135
0.033601 -0.240280 0.633776 144 139 136
0.037016 -0.241768 0.634089 143 138 135
0.040440 -0.243253 0.634399 143 138 135
0.043999 -0.245784 0.635321 143 138 135
0.047588 -0.248433 0.636309 142 137 134
0.051105 -0.250357 0.636870 143 138 135
0.054665 -0.252515 0.637565 143 138 135
0.058178 -0.254202 0.637982 143 138 135
0.061718 -0.256012 0.638469 143 139 136
0.065334 -0.258276 0.639219 144 140 137
0.069048 -0.261132 0.640311 144 140 137
0.072815 -0.264213 0.641532 143 139 136
0.076491 -0.266544 0.642312 143 139 136
0.080226 -0.269161 0.643256 142 138 135
0.084045 -0.272206 0.644445 141 137 134
0.087791 -0.274666 0.645291 141 137 134
0.091468 -0.276587 0.645822 138 137 133
0.095171 -0.278592 0.646400 138 137 133
0.098901 -0.280678 0.647022 138 137 133
0.102592 -0.282453 0.647461 137 138 133
0.106379 -0.284709 0.648177 139 140 135
0.110188 -0.287001 0.648910 138 139 134
0.113844 -0.288366 0.649107 138 139 134
0.117359 -0.288917 0.648834 139 140 135
0.120985 -0.290036 0.648886 139 140 135
0.124679 -0.291469 0.649118 139 140 135
0.128402 -0.293007 0.649408 140 141 136
0.132284 -0.295291 0.650124 140 142 137
0.136165 -0.297495 0.650792 141 143 138
0.140049 -0.299636 0.651421 142 144 139
0.143917 -0.301634 0.651965 140 145 139
0.148098 -0.305051 0.653318 138 143 137
0.152373 -0.308796 0.654853 140 142 137
0.156487 -0.311691 0.655900 139 141 136
0.160647 -0.314702 0.657010 139 141 136
0.164502 -0.316264 0.657292 139 141 136
0.168409 -0.318012 0.657678 138 140 135
0.172321 -0.319728 0.658044 138 140 135
0.176412 -0.322154 0.658810 138 140 135
0.180551 -0.324716 0.659651 141 143 138
0.184544 -0.326604 0.660107 143 145 140
0.188694 -0.329077 0.660891 142 144 139
0.193035 -0.332255 0.662071 143 145 140
0.197315 -0.335106 0.663063 143 145 140
0.201582 -0.337831 0.663979 143 145 140
0.205922 -0.340764 0.665011 145 147 142
0.210280 -0.343692 0.666036 145 147 142
0.214871 -0.347430 0.667512 144 146 141
0.219609 -0.351621 0.669239 144 146 141
0.224039 -0.354571 0.670265 144 146 141
0.228586 -0.357874 0.671485 143 145 140
0.233425 -0.362151 0.673246 142 144 139
0.238208 -0.366126 0.674833 143 145 140
0.243086 -0.370340 0.676550 143 145 140
0.248056 -0.374777 0.678385 140 145 139
0.253680 -0.381360 0.681411 140 145 139
0.258761 -0.385948 0.683320 140 145 139
0.322276 -0.543758 0.768206 55 59 62
0.328396 -0.549702 0.770758 63 68 74
0.332943 -0.550509 0.770462 69 76 82
0.339650 -0.558107 0.773918 81 88 94
0.715251 -0.957085 0.951328 121 121 121
0.716363 -0.947337 0.945214 120 120 118
0.717158 -0.937052 0.938827 63 64 59
0.719487 -0.930145 0.934228 125 125 123
0.720142 -0.919828 0.927847 112 112 110
0.720915 -0.909900 0.921682 110 111 106
0.721746 -0.900225 0.915660 106 107 102
0.722219 -0.889949 0.909336 104 105 100
0.723202 -0.880852 0.903639 103 104 99
0.722958 -0.869391 0.896718 101 102 96
0.720920 -0.854478 0.888011 105 106 100
0.716998 -0.836000 0.877463 121 122 116
0.717725 -0.826988 0.871863 132 133 127
0.718897 -0.818973 0.866790 136 136 128
0.719874 -0.810678 0.861582 134 134 126
0.721950 -0.804629 0.857548 134 133 128
0.720075 -0.791020 0.849604 134 133 128
0.721592 -0.784101 0.845138 132 131 126
0.721769 -0.774710 0.839402 132 131 126
0.724313 -0.769926 0.836056 131 130 125
0.726348 -0.764243 0.832251 133 132 127
0.728974 -0.759737 0.829059 132 132 122
0.731758 -0.755579 0.826051 150 150 140
0.731295 -0.745467 0.819989 181 183 172
-0.210871 -0.110203 0.600226 142 143 137
-0.208264 -0.111458 0.600542 143 144 138
-0.205656 -0.112768 0.600892 144 145 139
-0.203053 -0.114165 0.601296 145 146 140
-0.200434 -0.115519 0.601671 146 147 141
-0.197766 -0.116597 0.601868 146 145 140
-0.195237 -0.118706 0.602720 147 146 141
-0.192656 -0.120542 0.603396 147 146 141
-0.190130 -0.122873 0.604384 148 147 142
-0.187497 -0.124519 0.604934 148 147 142
-0.184816 -0.125877 0.605301 148 147 142
-0.182163 -0.127529 0.605852 151 150 145
-0.179487 -0.129083 0.606339 151 150 145
-0.176849 -0.131044 0.607081 152 151 146
-0.174149 -0.132581 0.607553 155 154 149
-0.171533 -0.134961 0.608556 155 154 149
-0.168818 -0.136586 0.609080 157 156 151
-0.166163 -0.138871 0.610017 157 156 151
-0.163476 -0.140997 0.610852 155 156 150
-0.160766 -0.143039 0.611632 155 156 150
-0.157993 -0.144562 0.612083 156 155 150
-0.155180 -0.145762 0.612330 156 155 151
-0.152429 -0.147749 0.613069 156 155 151
-0.149635 -0.149395 0.613591 157 153 150
-0.146850 -0.151285 0.614265 159 155 152
-0.144031 -0.152904 0.614767 158 154 151
-0.141165 -0.154043 0.614968 157 153 150
-0.138319 -0.155580 0.615415 158 154 151
-0.135459 -0.157044 0.615815 158 154 151
-0.132631 -0.159157 0.616618 159 155 152
-0.129754 -0.160706 0.617067 158 154 151
-0.126854 -0.162054 0.617389 158 154 151
-0.123951 -0.163514 0.617780 158 153 150
-0.121030 -0.164806 0.618065 158 153 150
-0.118105 -0.166198 0.618410 158 153 150
-0.115160 -0.167375 0.618620 158 153 150
-0.112201 -0.168391 0.618729 158 153 150
-0.109238 -0.169508 0.618900 157 152 149
-0.106271 -0.170700 0.619115 157 152 149
-0.103310 -0.172340 0.619605 159 151 149
-0.100336 -0.173903 0.620046 159 151 149
-0.097347 -0.175283 0.620373 158 150 147
-0.094344 -0.176501 0.620598 158 150 147
-0.091343 -0.178211 0.621124 156 148 145
-0.088328 -0.179807 0.621578 156 148 145
-0.085297 -0.180942 0.621748 156 148 145
-0.082263 -0.182621 0.622249 155 147 144
-0.079216 -0.183959 0.622540 155 145 143
-0.076158 -0.185085 0.622700 155 145 143
-0.073093 -0.185904 0.622670 155 145 143
-0.070019 -0.187775 0.623282 156 146 144
-0.066934 -0.189514 0.623811 155 145 143
-0.063831 -0.191784 0.624663 155 145 143
-0.060718 -0.193631 0.625253 154 144 142
-0.057601 -0.195025 0.625566 153 143 141
-0.054481 -0.196071 0.625666 155 145 143
-0.051359 -0.196864 0.625611 153 143 141
-0.048194 -0.199101 0.626431 153 143 141
-0.045012 -0.201414 0.627294 151 141 139
-0.041832 -0.203184 0.627826 153 143 141
-0.038616 -0.205623 0.628760 152 142 140
-0.035377 -0.208222 0.629789 151 141 139
-0.032127 -0.210651 0.630712 152 142 140
-0.028871 -0.212888 0.631516 152 142 140
-0.025600 -0.215108 0.632307 151 141 139
-0.022322 -0.217186 0.633011 151 141 139
-0.019064 -0.218651 0.633343 151 141 139
-0.015778 -0.220416 0.633853 150 140 138
-0.012486 -0.222086 0.634305 151 141 139
-0.009208 -0.223385 0.634532 152 142 140
-0.005934 -0.224492 0.634642 150 140 138
-0.002679 -0.225233 0.634532 150 140 138
0.000611 -0.226359 0.634652 149 141 138
0.003879 -0.227120 0.634552 149 141 138
0.007222 -0.228726 0.634955 147 139 136
0.010589 -0.230479 0.635444 148 140 137
0.013948 -0.232013 0.635801 148 140 137
0.017314 -0.233501 0.636128 147 139 136
0.020721 -0.235319 0.636650 146 138 135
0.024149 -0.237227 0.637224 146 138 135
0.027571 -0.238939 0.637679 145 137 134
0.031047 -0.241067 0.638378 146 138 135
0.034504 -0.242879 0.638888 144 136 133
0.037963 -0.244604 0.639343 142 137 133
0.041412 -0.246134 0.639683 143 138 134
0.044969 -0.248490 0.640507 144 139 136
0.048588 -0.251222 0.641552 143 138 135
0.052128 -0.253176 0.642134 142 138 135
0.055712 -0.255367 0.642853 142 138 135
0.059273 -0.257279 0.643406 143 139 136
0.062849 -0.259207 0.643966 143 139 136
0.066469 -0.261349 0.644649 143 139 136
0.070169 -0.263959 0.645605 143 139 136
0.073956 -0.267041 0.646833 142 138 135
0.077623 -0.269178 0.647506 141 137 134
0.081389 -0.271873 0.648501 140 136 133
0.085219 -0.274863 0.649667 140 136 133
0.088990 -0.277353 0.650537 140 136 133
0.092709 -0.279418 0.651156 138 137 135
0.096439 -0.281464 0.651761 137 136 134
0.100194 -0.283580 0.652405 138 137 133
0.103899 -0.285320 0.652828 138 137 133
0.107693 -0.287501 0.653505 137 138 133
0.111546 -0.289927 0.654321 137 138 133
0.115265 -0.291532 0.654659 138 139 134
0.118849 -0.292345 0.654536 138 139 134
0.122526 -0.293623 0.654682 137 139 134
0.126266 -0.295183 0.654988 137 139 134
0.130002 -0.296667 0.655249 139 141 136
0.133919 -0.299011 0.656005 140 142 139
0.137849 -0.301343 0.656751 140 142 137
0.141774 -0.303575 0.657436 141 143 138
0.145711 -0.305785 0.658106 139 141 136
0.149901 -0.309125 0.659423 139 142 135
0.154213 -0.312922 0.660998 138 140 135
0.158398 -0.316022 0.662169 139 141 136
0.162618 -0.319188 0.663374 138 140 135
0.166502 -0.320767 0.663668 138 140 135
0.170421 -0.322452 0.664020 138 140 135
0.174386 -0.324284 0.664455 137 139 134
0.178497 -0.326686 0.665212 138 140 135
0.182716 -0.329469 0.666183 138 140 135
0.186717 -0.331279 0.666598 137 142 136
0.190879 -0.333691 0.667352 139 144 138
0.195209 -0.336714 0.668451 141 146 140
0.199551 -0.339701 0.669526 141 146 140
0.203949 -0.342833 0.670679 141 146 140
0.208355 -0.345910 0.671799 140 145 139
0.212819 -0.349132 0.672996 142 147 141
0.217408 -0.352740 0.674408 142 147 141
0.222061 -0.356499 0.675901 144 146 141
0.226479 -0.359297 0.676847 143 145 140
0.231051 -0.362588 0.678068 142 144 139
0.235907 -0.366821 0.679815 141 143 138
0.240929 -0.371536 0.681829 141 143 138
0.245947 -0.376131 0.683770 143 145 140
0.250959 -0.380596 0.685633 142 144 139
0.257084 -0.388769 0.689569 139 144 138
0.263135 -0.396509 0.693254 141 147 143
0.316345 -0.533529 0.767807 135 141 139
0.320780 -0.534132 0.767408 38 44 44
0.326178 -0.537804 0.768720 62 67 71
0.330552 -0.538154 0.768177 64 71 77
0.337632 -0.546984 0.772350 76 83 91
0.718798 -0.946890 0.950876 118 118 120
0.718049 -0.933341 0.942723 52 52 50
0.720667 -0.927061 0.938432 61 62 57
0.722326 -0.918867 0.933136 119 120 115
0.722575 -0.907862 0.926365 113 112 108
0.723081 -0.897534 0.919965 110 109 105
0.724379 -0.888969 0.914504 108 107 103
0.726550 -0.882292 0.910048 105 104 102
0.728097 -0.874445 0.904984 102 102 100
0.727681 -0.862768 0.897918 102 103 98
0.723545 -0.843841 0.887064 102 103 98
0.722838 -0.831946 0.879915 117 118 113
0.723952 -0.823781 0.874731 128 129 123
0.724441 -0.814505 0.868976 137 136 131
0.725919 -0.807265 0.864295 134 133 128
0.723835 -0.793256 0.856092 135 134 129
0.725082 -0.785800 0.851319 132 131 126
0.724933 -0.775784 0.845222 133 132 127
0.727784 -0.771565 0.842150 132 131 126
0.729644 -0.765536 0.838143 131 131 123
0.731631 -0.759819 0.834305 131 132 124
0.734456 -0.755726 0.831314 134 135 129
0.733484 -0.744685 0.824733 148 151 144
-0.247066 -0.094677 0.600133 135 136 131
-0.244563 -0.095928 0.600470 136 137 132
-0.242109 -0.097464 0.600990 136 137 132
-0.239534 -0.098440 0.601145 136 137 132
-0.236976 -0.099540 0.601379 137 138 133
-0.234316 -0.100145 0.601292 137 138 133
-0.231855 -0.101834 0.601905 139 140 134
-0.229229 -0.102690 0.601977 139 140 134
-0.226534 -0.103199 0.601824 141 142 136
-0.223944 -0.104313 0.602061 142 143 137
-0.221357 -0.105489 0.602338 142 143 137
-0.218713 -0.106382 0.602429 142 143 137
-0.216020 -0.107017 0.602355 142 143 137
-0.213519 -0.108845 0.603047 143 144 138
-0.210902 -0.110034 0.603325 142 143 137
-0.208225 -0.110892 0.603390 142 143 137
-0.205628 -0.112300 0.603807 142 143 137
-0.203019 -0.113699 0.604216 144 145 139
-0.200400 -0.115087 0.604617 145 146 140
-0.197765 -0.116435 0.604990 146 145 140
-0.195206 -0.118382 0.605745 146 145 140
-0.192615 -0.120193 0.606411 146 145 140
-0.190051 -0.122293 0.607260 147 146 141
-0.187428 -0.124053 0.607888 148 147 142
-0.184708 -0.125146 0.608090 148 147 142
-0.182042 -0.126739 0.608609 148 147 142
-0.179377 -0.128419 0.609181 149 148 143
-0.176718 -0.130253 0.609850 150 149 144
-0.173994 -0.131626 0.610223 152 151 146
-0.171361 -0.133896 0.611164 152 151 146
-0.168667 -0.135748 0.611837 155 154 149
-0.166016 -0.138116 0.612835 156 155 150
-0.163339 -0.140395 0.613774 155 154 149
-0.160630 -0.142497 0.614599 156 155 150
-0.157838 -0.143881 0.614967 156 155 150
-0.155027 -0.145170 0.615274 156 155 150
-0.152265 -0.147102 0.615984 156 155 151
-0.149461 -0.148690 0.616476 159 155 152
-0.146644 -0.150265 0.616958 157 153 150
-0.143805 -0.151677 0.617335 157 153 150
-0.140944 -0.152944 0.617620 158 154 151
-0.138099 -0.154544 0.618112 158 154 151
-0.135233 -0.155991 0.618506 157 153 150
-0.132414 -0.158313 0.619447 157 153 150
-0.129531 -0.159853 0.619896 158 154 151
-0.126618 -0.161063 0.620136 158 154 151
-0.123706 -0.162435 0.620476 158 153 150
-0.120781 -0.163740 0.620773 159 154 151
-0.117849 -0.165093 0.621098 157 152 149
-0.114901 -0.166289 0.621324 157 152 149
-0.111925 -0.167033 0.621267 157 152 149
-0.108961 -0.168194 0.621469 156 151 148
-0.105998 -0.169620 0.621834 155 150 147
-0.103044 -0.171592 0.622536 157 149 147
-0.100070 -0.173341 0.623097 156 148 146
-0.097080 -0.174971 0.623582 156 148 145
-0.094075 -0.176400 0.623942 157 149 146
-0.091060 -0.177795 0.624279 156 148 145
-0.088042 -0.179601 0.624867 155 147 144
-0.085009 -0.181195 0.625323 155 147 144
-0.081968 -0.183155 0.626003 156 146 144
-0.078912 -0.184620 0.626375 155 145 143
-0.075844 -0.185915 0.626641 155 145 143
-0.072768 -0.186837 0.626677 155 145 143
-0.069683 -0.188551 0.627197 156 146 144
-0.066585 -0.190413 0.627807 155 145 143
-0.063469 -0.192837 0.628759 154 144 142
-0.060344 -0.194687 0.629356 154 144 142
-0.057214 -0.196121 0.629697 155 145 143
-0.054079 -0.197326 0.629896 155 145 143
-0.050942 -0.198235 0.629913 154 144 142
-0.047771 -0.200188 0.630566 153 143 141
-0.044578 -0.202426 0.631390 153 143 141
-0.041381 -0.204341 0.632015 152 142 140
-0.038149 -0.206855 0.633002 151 141 139
-0.034900 -0.209363 0.633983 152 142 140
-0.031642 -0.211704 0.634859 152 142 140
-0.028375 -0.213895 0.635642 151 141 139
-0.025105 -0.215833 0.636269 151 141 139
-0.021824 -0.217753 0.636882 151 141 139
-0.018553 -0.219259 0.637243 151 141 139
-0.015249 -0.221144 0.637831 150 140 138
-0.011945 -0.222827 0.638294 151 141 139
-0.008653 -0.224155 0.638542 150 140 138
-0.005350 -0.225512 0.638805 150 140 138
-0.002083 -0.226252 0.638696 149 139 137
0.001225 -0.227452 0.638862 148 140 137
0.004530 -0.228529 0.638953 148 140 137
0.007903 -0.230323 0.639473 148 140 137
0.011286 -0.232086 0.639972 147 139 136
0.014670 -0.233737 0.640402 147 139 136
0.018051 -0.235233 0.640738 147 139 136
0.021458 -0.236893 0.641170 146 138 135
0.024900 -0.238782 0.641737 147 139 136
0.028344 -0.240571 0.642241 146 138 135
0.031843 -0.242767 0.642987 144 136 133
0.035318 -0.244608 0.643518 143 138 134
0.038797 -0.246369 0.644000 143 138 134
0.042267 -0.247953 0.644374 143 138 135
0.045796 -0.249939 0.644985 142 137 134
0.049385 -0.252299 0.645816 143 138 135
0.052931 -0.254197 0.646371 142 138 135
0.056555 -0.256597 0.647220 142 138 135
0.060133 -0.258527 0.647788 142 138 135
0.063736 -0.260549 0.648409 142 138 135
0.067401 -0.262914 0.649229 141 137 134
0.071065 -0.265159 0.649977 140 136 133
0.074839 -0.268048 0.651101 138 134 131
0.078538 -0.270308 0.651851 138 134 131
0.082313 -0.272971 0.652836 139 135 132
0.086140 -0.275846 0.653943 139 135 132
0.089934 -0.278388 0.654850 139 135 132
0.093704 -0.280685 0.655611 137 136 132
0.097462 -0.282816 0.656272 137 136 132
0.101304 -0.285349 0.657166 137 136 132
0.105083 -0.287426 0.657789 136 137 132
0.108942 -0.289875 0.658629 137 138 133
0.112855 -0.292534 0.659587 137 138 133
0.116671 -0.294563 0.660175 137 138 133
0.120351 -0.295786 0.660291 137 138 133
0.124088 -0.297266 0.660555 139 141 136
0.127907 -0.299119 0.661035 137 139 134
0.131704 -0.300796 0.661410 140 142 139
0.135667 -0.303249 0.662233 140 142 139
0.139611 -0.305522 0.662949 139 141 136
0.143539 -0.307645 0.663576 140 142 137
0.147498 -0.309848 0.664246 138 140 135
0.151706 -0.313145 0.665546 138 140 135
0.156048 -0.316962 0.667143 138 140 135
0.160281 -0.320166 0.668381 138 140 135
0.164549 -0.323432 0.669652 136 138 133
0.168418 -0.324835 0.669846 136 138 133
0.172292 -0.326216 0.670026 137 139 134
0.176195 -0.327684 0.670254 136 138 133
0.180289 -0.329916 0.670919 136 138 133
0.184675 -0.333301 0.672242 137 139 134
0.188814 -0.335581 0.672928 134 139 133
0.193041 -0.338151 0.673778 137 142 136
0.197406 -0.341202 0.674900 139 144 138
0.201794 -0.344267 0.676026 140 145 139
0.206270 -0.347590 0.677296 140 145 139
0.210763 -0.350894 0.678551 140 145 139
0.215379 -0.354583 0.680022 140 145 139
0.220032 -0.358314 0.681512 140 145 139
0.224459 -0.361115 0.682469 143 145 140
0.228929 -0.364003 0.683473 141 143 138
0.233455 -0.367026 0.684549 140 142 137
0.238329 -0.371216 0.686283 140 142 137
0.243402 -0.376009 0.688354 141 143 138
0.248218 -0.379794 0.689849 142 144 139
0.253369 -0.384647 0.691943 135 140 134
0.258982 -0.390962 0.694857 136 141 135
0.307117 -0.512322 0.761174 150 156 152
0.311543 -0.513094 0.760883 158 164 162
0.317062 -0.517376 0.762563 22 28 28
0.322319 -0.520729 0.763716 63 68 72
0.327193 -0.522802 0.764148 66 70 79
0.332723 -0.526881 0.765701 72 79 89
0.341569 -0.541136 0.772938 63 66 73
0.718321 -0.928322 0.945925 73 73 73
0.722910 -0.926199 0.943826 80 81 76
0.724965 -0.918830 0.938939 113 114 109
0.725318 -0.908047 0.932246 115 114 110
0.726437 -0.898982 0.926477 112 111 107
0.728169 -0.891289 0.921446 111 110 106
0.729800 -0.883495 0.916371 109 108 104
0.730873 -0.874686 0.910767 106 107 102
0.731893 -0.865886 0.905179 104 105 100
0.729853 -0.851132 0.896457 101 102 97
0.730039 -0.840957 0.890167 100 101 96
0.730448 -0.831355 0.884191 112 113 107
0.729592 -0.819415 0.876995 127 128 122
0.729965 -0.810005 0.871143 135 134 129
0.727808 -0.795857 0.862815 136 135 130
0.728044 -0.786456 0.856992 135 134 129
0.727272 -0.775262 0.850241 134 133 128
0.729687 -0.770213 0.846718 133 132 127
0.731635 -0.764352 0.842776 132 131 126
0.733375 -0.758177 0.838677 130 131 125
0.735647 -0.753060 0.835138 132 133 127
0.734265 -0.741295 0.828141 133 136 129
-0.266869 -0.084118 0.600176 119 127 129
-0.264553 -0.085906 0.600882 123 129 129
-0.261987 -0.086652 0.600901 131 133 132
-0.259310 -0.086923 0.600605 128 130 129
-0.256825 -0.088074 0.600888 131 133 130
-0.254404 -0.089552 0.601384 132 134 129
-0.251916 -0.090766 0.601705 133 134 128
-0.249478 -0.092257 0.602207 135 134 129
-0.247134 -0.094243 0.603030 135 136 131
-0.244654 -0.095635 0.603463 135 136 131
-0.242264 -0.097521 0.604217 135 136 131
-0.239770 -0.098941 0.604664 135 136 131
-0.237256 -0.100311 0.605078 136 137 132
-0.234616 -0.101074 0.605094 136 137 132
-0.232085 -0.102442 0.605502 138 139 134
-0.229456 -0.103330 0.605598 140 141 136
-0.226814 -0.104180 0.605667 140 141 136
-0.224220 -0.105334 0.605933 141 142 137
-0.221621 -0.106502 0.606206 141 142 137
-0.218988 -0.107516 0.606378 142 143 137
-0.216282 -0.108139 0.606296 142 143 137
-0.213718 -0.109652 0.606789 143 144 138
-0.211053 -0.110604 0.606918 143 144 138
-0.208388 -0.111593 0.607069 144 145 139
-0.205794 -0.113084 0.607543 143 144 138
-0.203179 -0.114506 0.607971 144 145 139
-0.200562 -0.115981 0.608432 145 144 139
-0.197935 -0.117453 0.608888 146 145 140
-0.195333 -0.119168 0.609500 147 146 141
-0.192735 -0.121004 0.610187 148 147 142
-0.190152 -0.123036 0.610998 148 147 142
-0.187535 -0.124911 0.611705 148 147 142
-0.184797 -0.125954 0.611878 148 147 142
-0.182101 -0.127386 0.612298 148 147 142
-0.179397 -0.128823 0.612720 148 147 142
-0.176738 -0.130729 0.613439 148 147 142
-0.174027 -0.132297 0.613941 149 148 143
-0.171384 -0.134565 0.614888 150 149 144
-0.168685 -0.136458 0.615592 152 151 146
-0.166005 -0.138651 0.616486 153 152 147
-0.163311 -0.140850 0.617381 154 153 148
-0.160592 -0.142948 0.618210 155 154 149
-0.157751 -0.143927 0.618325 155 154 149
-0.154947 -0.145369 0.618732 157 154 149
-0.152203 -0.147593 0.619634 157 153 150
-0.149355 -0.148784 0.619879 159 155 152
-0.146516 -0.150184 0.620254 157 153 150
-0.143678 -0.151726 0.620718 158 154 151
-0.140816 -0.153076 0.621059 158 154 151
-0.137968 -0.154742 0.621597 158 154 151
-0.135117 -0.156538 0.622216 157 153 150
-0.132303 -0.159086 0.623306 157 153 150
-0.129411 -0.160641 0.623768 157 153 150
-0.126484 -0.161801 0.623980 157 153 150
-0.123559 -0.163128 0.624295 157 152 149
-0.120617 -0.164312 0.624520 156 151 148
-0.117685 -0.165868 0.624976 156 151 148
-0.114732 -0.167189 0.625283 156 151 148
-0.111758 -0.168224 0.625409 156 151 148
-0.108786 -0.169491 0.625679 155 150 147
-0.105803 -0.170714 0.625921 156 151 148
-0.102838 -0.172731 0.626656 157 149 147
-0.099856 -0.174628 0.627315 156 148 146
-0.096854 -0.176267 0.627810 157 149 146
-0.093839 -0.177809 0.628243 156 148 145
-0.090815 -0.179417 0.628715 156 148 145
-0.087784 -0.181243 0.629321 155 147 144
-0.084734 -0.182621 0.629647 155 147 144
-0.081680 -0.184551 0.630313 157 147 145
-0.078610 -0.186069 0.630722 157 147 145
-0.075530 -0.187369 0.630994 156 146 144
-0.072441 -0.188348 0.631066 155 145 143
-0.069342 -0.190046 0.631581 156 146 144
-0.066230 -0.191983 0.632241 154 144 142
-0.063100 -0.194362 0.633172 154 144 142
-0.059962 -0.196173 0.633750 153 143 141
-0.056819 -0.197573 0.634074 155 145 143
-0.053673 -0.198635 0.634187 154 144 142
-0.050523 -0.199556 0.634212 154 144 142
-0.047340 -0.201460 0.634840 153 143 141
-0.044138 -0.203573 0.635594 154 144 142
-0.040929 -0.205443 0.636197 152 142 140
-0.037681 -0.208039 0.637242 153 143 141
-0.034421 -0.210500 0.638201 152 142 140
-0.031159 -0.212622 0.638950 152 142 140
-0.027884 -0.214714 0.639679 151 141 139
-0.024595 -0.216808 0.640406 151 141 139
-0.021299 -0.218774 0.641053 151 141 139
-0.018020 -0.220205 0.641371 151 141 139
-0.014700 -0.222132 0.641990 151 141 139
-0.011381 -0.223863 0.642488 151 141 139
-0.008076 -0.225202 0.642745 150 140 138
-0.004744 -0.226795 0.643155 149 139 137
-0.001445 -0.227785 0.643197 148 138 136
0.001884 -0.229088 0.643428 147 139 136
0.005211 -0.230241 0.643566 147 139 136
0.008598 -0.232024 0.644084 147 139 137
0.011979 -0.233599 0.644474 147 139 137
0.015370 -0.235168 0.644859 147 139 137
0.018775 -0.236761 0.645256 146 138 136
0.022203 -0.238486 0.645731 145 137 135
0.025674 -0.240525 0.646393 144 136 134
0.029127 -0.242256 0.646867 144 136 134
0.032653 -0.244554 0.647680 145 137 135
0.036169 -0.246616 0.648348 141 136 132
0.039657 -0.248320 0.648799 142 137 134
0.043145 -0.249922 0.649188 143 138 135
0.046689 -0.251888 0.649792 143 138 135
0.050281 -0.254144 0.650567 142 137 134
0.053828 -0.255923 0.651054 142 138 135
0.057451 -0.258189 0.651830 141 137 134
0.061057 -0.260219 0.652463 140 136 133
0.064691 -0.262348 0.653153 141 137 134
0.068395 -0.264870 0.654073 140 136 133
0.072102 -0.267299 0.654935 139 135 132
0.075921 -0.270371 0.656176 138 134 131
0.079630 -0.272579 0.656901 137 133 130
0.083395 -0.275056 0.657783 135 134 130
0.087202 -0.277689 0.658754 136 135 131
0.090993 -0.280108 0.659596 136 135 131
0.094812 -0.282602 0.660479 136 135 131
0.098644 -0.285074 0.661346 136 137 132
0.102539 -0.287814 0.662368 136 137 132
0.106351 -0.289972 0.663045 136 137 132
0.110256 -0.292569 0.663977 136 137 132
0.114240 -0.295510 0.665108 136 137 132
0.118078 -0.297547 0.665705 137 138 133
0.121788 -0.298824 0.665854 138 139 134
0.125603 -0.300604 0.666296 137 139 134
0.129520 -0.302853 0.667011 138 140 135
0.133359 -0.304623 0.667443 139 141 138
0.137346 -0.307076 0.668271 139 141 138
0.141292 -0.309242 0.668930 138 140 137
0.145246 -0.311380 0.669569 139 141 136
0.149229 -0.313584 0.670244 137 139 134
0.153504 -0.317082 0.671670 137 139 134
0.157875 -0.320914 0.673285 136 138 133
0.162138 -0.324139 0.674544 137 139 134
0.166419 -0.327345 0.675788 136 138 133
0.170356 -0.328945 0.676097 137 139 134
0.174280 -0.330435 0.676342 136 138 133
0.178225 -0.331977 0.676614 136 138 133
0.182349 -0.334226 0.677292 136 138 133
0.186681 -0.337279 0.678433 136 138 133
0.190895 -0.339757 0.679238 138 140 137
0.195215 -0.342602 0.680251 138 140 137
0.199628 -0.345737 0.681428 138 140 137
0.203960 -0.348470 0.682371 141 143 140
0.208544 -0.352110 0.683831 141 143 138
0.213042 -0.355324 0.685043 142 144 139
0.217491 -0.358274 0.686099 142 144 139
0.221991 -0.361337 0.687216 142 144 139
0.226336 -0.363752 0.687960 141 144 137
0.230794 -0.366519 0.688901 142 144 139
0.235544 -0.370269 0.690401 143 145 140
0.240411 -0.374345 0.692082 139 141 136
0.245454 -0.378945 0.694057 140 142 137
0.250697 -0.384132 0.696360 139 141 136
0.255943 -0.389209 0.698594 135 140 136
0.305765 -0.503170 0.760503 148 154 152
0.310238 -0.504155 0.760339 150 156 154
0.315649 -0.508136 0.761867 34 40 40
0.321309 -0.512823 0.763789 58 63 67
0.326407 -0.515639 0.764651 65 70 76
0.332857 -0.522609 0.767849 68 75 83
0.339467 -0.529927 0.771234 72 75 82
0.725136 -0.925278 0.949214 118 118 116
0.726208 -0.915871 0.943207 120 120 118
0.727538 -0.907124 0.937564 118 117 113
0.729672 -0.900143 0.932876 115 114 109
0.731772 -0.893186 0.928208 113 112 108
0.733772 -0.886122 0.923491 110 111 106
0.735263 -0.878130 0.918288 108 109 104
0.736324 -0.869391 0.912696 106 107 102
0.735299 -0.856641 0.904983 104 105 100
0.736498 -0.848427 0.899693 102 103 98
0.737353 -0.839649 0.894114 101 102 96
0.736719 -0.828099 0.887076 105 106 100
0.735953 -0.816443 0.879995 124 125 119
0.733619 -0.801935 0.871421 134 133 128
0.733422 -0.791675 0.865106 136 135 130
0.732366 -0.779924 0.858017 135 134 129
0.733679 -0.772767 0.853362 134 133 128
0.735464 -0.766581 0.849225 134 133 128
0.736782 -0.759604 0.844680 133 134 128
0.738070 -0.752657 0.840158 132 133 127
0.735645 -0.738997 0.832125 135 136 130
-0.263970 -0.082498 0.601796 117 125 127
-0.261988 -0.085782 0.603498 107 111 112
-0.259601 -0.087364 0.604071 131 135 136
-0.257224 -0.089037 0.604701 128 133 129
-0.254843 -0.090743 0.605352 131 133 128
-0.252321 -0.091851 0.605606 133 134 128
-0.249782 -0.092913 0.605828 135 134 129
-0.247376 -0.094644 0.606491 136 135 131
-0.244816 -0.095686 0.606697 136 135 131
-0.242511 -0.098027 0.607756 135 136 131
-0.240179 -0.100310 0.608775 136 137 132
-0.237722 -0.102029 0.609420 137 138 133
-0.235092 -0.102908 0.609513 137 138 133
-0.232521 -0.104135 0.609833 136 138 135
-0.229935 -0.105323 0.610125 138 140 137
-0.227285 -0.106209 0.610219 141 142 137
-0.224640 -0.107151 0.610349 142 143 138
-0.222038 -0.108377 0.610662 142 143 138
-0.219410 -0.109500 0.610907 143 144 139
-0.216751 -0.110485 0.611061 145 146 141
-0.214193 -0.112127 0.611641 147 148 143
-0.211524 -0.113146 0.611814 148 149 143
-0.208775 -0.113706 0.611688 147 148 142
-0.206123 -0.114915 0.611982 148 149 143
-0.203496 -0.116346 0.612419 148 149 143
-0.200880 -0.117916 0.612944 148 147 142
-0.198260 -0.119534 0.613500 148 147 142
-0.195627 -0.121131 0.614038 146 145 140
-0.192982 -0.122726 0.614575 147 146 141
-0.190339 -0.124412 0.615168 147 146 141
-0.187685 -0.126107 0.615764 147 146 141
-0.184948 -0.127237 0.615995 146 145 140
-0.182230 -0.128591 0.616368 148 147 142
-0.179491 -0.129840 0.616672 147 146 141
-0.176836 -0.131867 0.617476 147 146 141
-0.174120 -0.133492 0.618018 147 146 141
-0.171449 -0.135610 0.618875 151 148 143
-0.168731 -0.137438 0.619544 152 149 144
-0.166011 -0.139355 0.620267 153 150 145
-0.163304 -0.141527 0.621152 153 150 145
-0.160596 -0.143834 0.622120 154 151 146
-0.157758 -0.144951 0.622325 156 153 148
-0.154928 -0.146237 0.622637 157 154 149
-0.152158 -0.148291 0.623436 157 154 149
-0.149304 -0.149538 0.623720 158 154 151
-0.146482 -0.151264 0.624306 157 153 150
-0.143639 -0.152879 0.624821 156 152 149
-0.140773 -0.154343 0.625237 157 153 150
-0.137920 -0.156116 0.625848 156 152 149
-0.135057 -0.157912 0.626471 156 152 149
-0.132225 -0.160378 0.627517 155 151 148
-0.129326 -0.162027 0.628043 156 152 149
-0.126399 -0.163389 0.628385 155 151 148
-0.123470 -0.164895 0.628816 157 152 149
-0.120517 -0.166128 0.629074 156 151 148
-0.117566 -0.167580 0.629468 155 150 147
-0.114580 -0.168498 0.629523 155 150 147
-0.111596 -0.169578 0.629680 155 150 147
-0.108614 -0.170932 0.630008 154 149 146
-0.105617 -0.172102 0.630218 154 149 146
-0.102641 -0.174182 0.630999 156 148 146
-0.099653 -0.176331 0.631821 156 148 145
-0.096635 -0.177909 0.632282 156 148 145
-0.093599 -0.179113 0.632506 156 148 145
-0.090563 -0.180785 0.633023 157 149 146
-0.087517 -0.182532 0.633584 156 148 145
-0.084454 -0.183844 0.633872 156 146 144
-0.081387 -0.185799 0.634559 156 146 144
-0.078307 -0.187551 0.635118 156 146 144
-0.075213 -0.189021 0.635498 155 145 143
-0.072110 -0.190053 0.635604 155 145 143
-0.068997 -0.191775 0.636139 156 146 144
-0.065871 -0.193624 0.636750 155 145 143
-0.062726 -0.196029 0.637703 154 144 142
-0.059573 -0.197894 0.638320 154 144 142
-0.056414 -0.199387 0.638703 155 145 143
-0.053254 -0.200422 0.638801 154 144 142
-0.050094 -0.201152 0.638710 153 143 141
-0.046903 -0.202834 0.639205 153 143 141
-0.043687 -0.204933 0.639957 153 143 141
-0.040460 -0.206974 0.640670 153 143 141
-0.037201 -0.209458 0.641653 152 142 140
-0.033924 -0.211997 0.642667 151 141 139
-0.030645 -0.214179 0.643459 150 140 138
-0.027373 -0.215906 0.643969 150 140 138
-0.024069 -0.218029 0.644720 150 140 138
-0.020751 -0.220149 0.645467 151 141 139
-0.017453 -0.221658 0.645837 151 141 139
-0.014113 -0.223700 0.646530 150 140 138
-0.010768 -0.225610 0.647142 150 140 138
-0.007442 -0.227038 0.647456 149 139 137
-0.004112 -0.228382 0.647717 150 140 138
-0.000810 -0.229226 0.647672 149 139 137
0.002541 -0.230619 0.647960 147 139 136
0.005905 -0.232064 0.648278 147 139 137
0.009317 -0.233957 0.648867 146 138 136
0.012712 -0.235506 0.649245 146 138 136
0.016120 -0.237094 0.649645 145 137 135
0.019540 -0.238675 0.650038 145 137 135
0.022983 -0.240391 0.650512 146 138 136
0.026474 -0.242463 0.651199 144 136 134
0.029947 -0.244232 0.651700 144 136 134
0.033497 -0.246601 0.652561 144 136 134
0.037066 -0.248997 0.653436 142 137 134
0.040594 -0.250889 0.654004 141 136 133
0.044080 -0.252319 0.654292 141 136 133
0.047605 -0.253983 0.654719 141 136 133
0.051185 -0.256001 0.655357 141 137 134
0.054740 -0.257722 0.655814 140 136 133
0.058375 -0.259955 0.656576 140 136 133
0.062012 -0.262092 0.657278 139 135 132
0.065674 -0.264302 0.658021 138 134 131
0.069381 -0.266728 0.658891 137 133 130
0.073081 -0.268990 0.659660 137 133 130
0.076899 -0.271945 0.660840 134 133 129
0.080626 -0.274173 0.661583 135 134 130
0.084438 -0.276841 0.662585 135 134 130
0.088271 -0.279533 0.663599 136 135 131
0.092114 -0.282172 0.664578 136 135 131
0.095979 -0.284840 0.665571 135 136 131
0.099892 -0.287681 0.666664 134 135 130
0.103857 -0.290713 0.667866 135 136 131
0.107764 -0.293299 0.668801 135 136 131
0.111705 -0.295972 0.669784 136 137 132
0.115680 -0.298735 0.670818 135 136 131
0.119551 -0.300836 0.671457 136 137 132
0.123312 -0.302271 0.671700 136 137 132
0.127160 -0.304113 0.672182 136 138 133
0.131094 -0.306326 0.672880 137 139 136
0.135011 -0.308381 0.673483 137 139 136
0.139059 -0.311017 0.674424 136 138 135
0.143010 -0.313089 0.675032 135 137 134
0.146968 -0.315128 0.675617 137 139 134
0.150969 -0.317309 0.676283 136 138 133
0.155241 -0.320673 0.677640 136 138 133
0.159654 -0.324586 0.679313 136 138 133
0.164019 -0.328161 0.680784 136 138 133
0.168389 -0.331645 0.682199 136 138 133
0.172373 -0.333341 0.682566 136 138 133
0.176336 -0.334894 0.682848 137 139 134
0.180330 -0.336530 0.683177 137 139 134
0.184522 -0.338954 0.683961 137 139 134
0.188763 -0.341512 0.684821 137 139 134
0.192978 -0.343890 0.685573 136 138 135
0.197388 -0.346987 0.686739 136 138 133
0.201783 -0.349946 0.687822 136 138 133
0.206194 -0.352885 0.688890 138 140 135
0.210678 -0.356026 0.690071 139 141 136
0.215024 -0.358564 0.690899 141 143 138
0.219274 -0.360671 0.691477 141 143 138
0.223780 -0.363681 0.692572 141 144 137
0.228117 -0.365991 0.693261 144 146 141
0.232661 -0.368996 0.694346 141 143 138
0.237646 -0.373512 0.696297 139 141 136
0.242527 -0.377551 0.697968 138 140 135
0.247715 -0.382568 0.700195 139 141 138
0.252695 -0.386746 0.701936 133 138 134
0.299898 -0.492853 0.759841 148 154 152
0.305131 -0.496413 0.761154 149 155 153
0.309818 -0.498128 0.761411 151 155 156
0.315484 -0.502938 0.763427 66 71 74
0.320975 -0.507094 0.765066 57 62 66
0.326511 -0.511300 0.766728 62 67 73
0.333481 -0.519868 0.770858 64 68 77
0.339599 -0.525640 0.773394 70 73 80
0.728801 -0.915691 0.948984 119 119 119
0.730146 -0.906977 0.943325 120 121 116
0.732357 -0.900146 0.938690 119 120 114
0.733655 -0.891560 0.933120 115 116 110
0.735501 -0.884190 0.928213 113 114 109
0.737243 -0.876711 0.923255 109 110 105
0.738583 -0.868535 0.917933 108 109 104
0.738374 -0.857413 0.911044 107 108 103
0.740320 -0.850657 0.906502 105 105 103
0.741480 -0.842460 0.901198 103 104 99
0.741481 -0.832127 0.894764 100 101 96
0.741447 -0.821862 0.888379 103 104 99
0.739432 -0.807950 0.880066 121 122 116
0.738419 -0.796114 0.872871 133 132 127
0.736564 -0.782841 0.864928 136 135 130
0.737741 -0.775410 0.860098 136 135 130
0.738712 -0.767687 0.855121 136 135 130
0.739198 -0.759164 0.849731 133 134 128
0.739307 -0.750054 0.844040 133 134 128
0.737931 -0.738345 0.836988 135 136 130
-0.262730 -0.076259 0.600813 108 118 120
-0.261007 -0.080615 0.603244 112 117 120
-0.259048 -0.084049 0.605057 103 107 110
-0.257114 -0.087701 0.607010 139 143 142
-0.254944 -0.090382 0.608315 126 131 127
-0.252574 -0.092224 0.609060 132 134 129
-0.250104 -0.093647 0.609524 129 130 125
-0.247577 -0.094846 0.609838 137 138 133
-0.244952 -0.095609 0.609863 135 136 131
-0.242660 -0.098043 0.610992 138 139 134
-0.240370 -0.100572 0.612180 139 140 135
-0.237887 -0.102201 0.612772 143 144 139
-0.235321 -0.103457 0.613116 146 148 145
-0.232696 -0.104443 0.613280 145 147 144
-0.230035 -0.105271 0.613338 144 146 145
-0.227501 -0.106828 0.613876 144 146 143
-0.224852 -0.107803 0.614029 144 146 143
-0.222228 -0.108958 0.614299 146 148 143
-0.219543 -0.109802 0.614364 147 149 144
-0.216917 -0.111033 0.614681 149 151 146
-0.214361 -0.112737 0.615308 149 151 146
-0.211676 -0.113720 0.615459 149 151 146
-0.208928 -0.114346 0.615377 148 150 145
-0.206275 -0.115606 0.615708 148 149 143
-0.203658 -0.117166 0.616233 147 148 142
-0.201020 -0.118659 0.616712 147 148 142
-0.198431 -0.120549 0.617449 146 147 141
-0.195771 -0.122041 0.617924 147 146 141
-0.193087 -0.123427 0.618328 147 146 141
-0.190421 -0.125015 0.618862 147 146 141
-0.187732 -0.126514 0.619337 147 146 141
-0.184976 -0.127569 0.619522 147 146 141
-0.182260 -0.129000 0.619949 147 146 141
-0.179554 -0.130599 0.620483 147 146 141
-0.176909 -0.132799 0.621404 147 146 141
-0.174182 -0.134420 0.621949 148 147 142
-0.171532 -0.136828 0.622999 146 145 140
-0.168775 -0.138398 0.623506 150 147 142
-0.166049 -0.140357 0.624262 152 149 144
-0.163329 -0.142514 0.625144 152 149 144
-0.160625 -0.144986 0.626225 153 150 145
-0.157793 -0.146280 0.626547 153 150 145
-0.154925 -0.147290 0.626684 154 151 146
-0.152132 -0.149219 0.627409 155 152 147
-0.149261 -0.150383 0.627643 156 153 148
-0.146434 -0.152186 0.628284 157 154 149
-0.143592 -0.153958 0.628903 156 152 149
-0.140738 -0.155717 0.629511 155 151 148
-0.137884 -0.157662 0.630237 156 152 149
-0.135003 -0.159385 0.630818 156 152 149
-0.132155 -0.161816 0.631849 156 152 149
-0.129239 -0.163389 0.632331 154 150 147
-0.126296 -0.164715 0.632653 155 151 148
-0.123348 -0.166099 0.633010 156 151 148
-0.120384 -0.167346 0.633279 155 150 147
-0.117432 -0.169039 0.633830 155 150 147
-0.114444 -0.170180 0.634029 154 149 146
-0.111448 -0.171310 0.634219 155 150 147
-0.108451 -0.172628 0.634527 153 148 145
-0.105445 -0.173957 0.634840 155 150 147
-0.102452 -0.175962 0.635579 156 148 146
-0.099448 -0.178068 0.636379 156 148 145
-0.096420 -0.179793 0.636937 156 148 145
-0.093372 -0.181120 0.637241 156 148 145
-0.090321 -0.182818 0.637778 157 147 145
-0.087260 -0.184542 0.638329 157 147 145
-0.084182 -0.185936 0.638670 157 147 145
-0.081097 -0.187597 0.639178 157 147 145
-0.078002 -0.189304 0.639713 155 145 143
-0.074894 -0.191064 0.640278 156 146 144
-0.071775 -0.192390 0.640570 154 144 142
-0.068645 -0.194152 0.641133 155 145 143
-0.065504 -0.195885 0.641676 155 145 143
-0.062344 -0.198138 0.642541 154 144 142
-0.059177 -0.199842 0.643061 153 143 141
-0.056002 -0.201358 0.643462 154 144 142
-0.052824 -0.202523 0.643643 153 143 141
-0.049646 -0.203393 0.643639 153 143 141
-0.046435 -0.205187 0.644208 153 143 141
-0.043203 -0.207284 0.644963 153 143 141
-0.039954 -0.209420 0.645740 151 141 139
-0.036680 -0.211861 0.646703 151 141 139
-0.033386 -0.214378 0.647711 151 141 139
-0.030088 -0.216609 0.648539 150 140 138
-0.026799 -0.218316 0.649040 150 140 138
-0.023479 -0.220421 0.649785 150 140 138
-0.020154 -0.222355 0.650422 150 140 138
-0.016849 -0.223701 0.650694 150 140 138
-0.013495 -0.225711 0.651374 149 139 137
-0.010120 -0.227814 0.652108 149 139 137
-0.006772 -0.229320 0.652474 149 139 137
-0.003430 -0.230604 0.652700 148 138 136
-0.000112 -0.231446 0.652655 148 138 137
0.003251 -0.232781 0.652910 146 138 136
0.006650 -0.234448 0.653367 145 137 135
0.010092 -0.236489 0.654050 145 137 135
0.013515 -0.238154 0.654502 144 136 134
0.016947 -0.239791 0.654935 145 137 135
0.020378 -0.241305 0.655291 145 137 135
0.023849 -0.243123 0.655829 144 136 134
0.027369 -0.245291 0.656579 144 139 136
0.030857 -0.247019 0.657059 141 136 133
0.034412 -0.249249 0.657842 142 137 134
0.038014 -0.251768 0.658798 142 137 134
0.041586 -0.253879 0.659503 142 137 134
0.045097 -0.255352 0.659819 140 135 132
0.048631 -0.256933 0.660199 140 135 132
0.052207 -0.258757 0.660724 139 135 132
0.055776 -0.260436 0.661159 140 136 133
0.059421 -0.262593 0.661881 139 135 132
0.063092 -0.264846 0.662658 138 134 131
0.066801 -0.267255 0.663525 137 133 130
0.070551 -0.269841 0.664497 136 132 129
0.074284 -0.272185 0.665321 136 132 129
0.078097 -0.274961 0.666401 134 133 129
0.081865 -0.277318 0.667227 133 132 128
0.085689 -0.279926 0.668200 135 134 130
0.089559 -0.282719 0.669281 134 135 130
0.093451 -0.285524 0.670366 134 135 130
0.097329 -0.288132 0.671329 134 135 130
0.101294 -0.291152 0.672536 134 135 130
0.105279 -0.294169 0.673738 134 135 130
0.109224 -0.296836 0.674727 134 135 130
0.113220 -0.299691 0.675825 134 135 130
0.117197 -0.302336 0.676795 134 136 131
0.121103 -0.304500 0.677475 135 137 132
0.124919 -0.306106 0.677822 135 137 132
0.128812 -0.308058 0.678372 134 136 133
0.132787 -0.310356 0.679125 136 138 135
0.136693 -0.312234 0.679627 135 137 134
0.140745 -0.314769 0.680515 135 137 134
0.144734 -0.316908 0.681166 136 138 135
0.148757 -0.319145 0.681872 136 138 135
0.152786 -0.321338 0.682549 136 138 133
0.157093 -0.324748 0.683941 136 138 133
0.161550 -0.328738 0.685671 135 137 132
0.165956 -0.332374 0.687188 136 138 133
0.170378 -0.335976 0.688679 136 138 133
0.174435 -0.337874 0.689168 136 138 133
0.178505 -0.339773 0.689654 137 139 134
0.182547 -0.341501 0.690038 134 136 131
0.186735 -0.343786 0.690746 138 140 135
0.190890 -0.345870 0.691334 137 139 134
0.195155 -0.348348 0.692149 137 139 134
0.199574 -0.351370 0.693279 137 139 134
0.204046 -0.354521 0.694480 137 139 134
0.208539 -0.357673 0.695678 138 140 135
0.212898 -0.360223 0.696523 140 142 137
0.217155 -0.362321 0.697101 138 141 134
0.221391 -0.364284 0.697599 142 145 138
0.225705 -0.366485 0.698233 140 143 136
0.230195 -0.369277 0.699206 139 141 136
0.235000 -0.373142 0.700797 137 139 136
0.240326 -0.378773 0.703404 135 137 134
0.245525 -0.383821 0.705668 130 132 129
0.250680 -0.388597 0.707769 111 113 112
0.294713 -0.484705 0.760367 144 150 148
0.300755 -0.491014 0.763275 146 152 150
0.306349 -0.495725 0.765259 146 152 150
0.310857 -0.496826 0.765171 150 154 155
0.316840 -0.502613 0.767762 93 97 100
0.322619 -0.507629 0.769905 51 56 60
0.328145 -0.511746 0.771530 58 63 69
0.335234 -0.520612 0.775859 60 65 71
0.341189 -0.525824 0.778095 67 70 75
0.580551 -1.198352 1.158032 43 41 46
0.731514 -0.904263 0.947725 118 118 116
0.733036 -0.896045 0.942313 121 122 117
0.735670 -0.890181 0.938185 118 119 114
0.738334 -0.884456 0.934138 116 117 112
0.740341 -0.877500 0.929434 113 114 109
0.742090 -0.870126 0.924513 110 111 106
0.742823 -0.860852 0.918576 107 108 103
0.744982 -0.854483 0.914214 108 108 106
0.745680 -0.845365 0.908381 103 104 99
0.746128 -0.835882 0.902364 103 104 99
0.746948 -0.827233 0.896804 101 102 97
0.746041 -0.815411 0.889555 102 103 98
0.745161 -0.803791 0.882428 117 116 112
0.743367 -0.790603 0.874476 132 131 126
0.744376 -0.782807 0.869419 137 136 131
0.745494 -0.775313 0.864531 136 135 130
0.745839 -0.766485 0.858941 134 135 129
0.744503 -0.754689 0.851783 134 135 129
0.742148 -0.741185 0.843730 136 137 131
-0.261940 -0.071967 0.601103 76 86 88
-0.260011 -0.075383 0.602923 90 95 99
-0.258079 -0.078890 0.604800 95 100 103
-0.256286 -0.083126 0.607160 101 106 109
-0.254416 -0.087142 0.609368 144 150 150
-0.252357 -0.090405 0.611069 141 145 144
-0.250145 -0.093054 0.612357 131 133 130
-0.247634 -0.094355 0.612743 137 137 135
-0.244916 -0.094687 0.612483 137 139 136
-0.242562 -0.096836 0.613431 143 145 140
-0.240334 -0.099694 0.614847 145 147 142
-0.237876 -0.101470 0.615542 149 151 146
-0.235408 -0.103255 0.616241 148 150 147
-0.232717 -0.103928 0.616200 145 147 144
-0.230029 -0.104641 0.616185 146 148 147
-0.227555 -0.106557 0.616966 149 151 148
-0.224895 -0.107502 0.617102 148 150 147
-0.222265 -0.108659 0.617377 150 152 149
-0.219600 -0.109661 0.617548 151 153 150
-0.216978 -0.110954 0.617910 152 154 151
-0.214429 -0.112742 0.618596 150 152 147
-0.211756 -0.113840 0.618827 149 151 146
-0.209041 -0.114724 0.618915 148 150 145
-0.206396 -0.116097 0.619324 149 150 145
-0.203761 -0.117600 0.619816 146 147 142
-0.201137 -0.119242 0.620397 146 147 142
-0.198536 -0.121119 0.621131 146 147 142
-0.195845 -0.122456 0.621509 146 147 141
-0.193133 -0.123703 0.621826 146 147 141
-0.190445 -0.125191 0.622300 146 147 141
-0.187742 -0.126647 0.622751 146 147 141
-0.184975 -0.127677 0.622922 146 147 141
-0.182267 -0.129235 0.623436 146 147 141
-0.179569 -0.130972 0.624065 147 146 141
-0.176899 -0.133033 0.624903 147 146 141
-0.174167 -0.134685 0.625472 147 146 141
-0.171503 -0.137037 0.626494 147 146 141
-0.168715 -0.138407 0.626877 148 147 142
-0.166006 -0.140602 0.627792 150 147 142
-0.163287 -0.142858 0.628744 151 148 143
-0.160567 -0.145256 0.629786 152 149 144
-0.157727 -0.146564 0.630120 153 150 145
-0.154871 -0.147787 0.630397 153 150 145
-0.152081 -0.149859 0.631222 153 150 145
-0.149191 -0.150922 0.631392 154 151 146
-0.146359 -0.152781 0.632074 154 151 146
-0.143536 -0.154923 0.632937 154 151 146
-0.140683 -0.156855 0.633662 154 150 147
-0.137802 -0.158586 0.634256 154 150 147
-0.134907 -0.160271 0.634817 154 150 147
-0.132041 -0.162586 0.635782 155 151 148
-0.129104 -0.164016 0.636175 155 151 148
-0.126150 -0.165317 0.636485 155 151 148
-0.123193 -0.166727 0.636863 154 149 146
-0.120205 -0.167723 0.636975 154 149 146
-0.117240 -0.169333 0.637477 156 151 148
-0.114259 -0.170818 0.637899 154 149 146
-0.111259 -0.172118 0.638199 155 150 147
-0.108251 -0.173433 0.638509 155 150 147
-0.105240 -0.174941 0.638939 154 149 146
-0.102231 -0.176818 0.639602 156 148 146
-0.099212 -0.178788 0.640323 156 148 145
-0.096174 -0.180541 0.640903 156 148 145
-0.093118 -0.182017 0.641305 157 147 145
-0.090056 -0.183731 0.641857 157 147 145
-0.086983 -0.185450 0.642409 157 147 145
-0.083894 -0.186902 0.642791 158 148 146
-0.080799 -0.188688 0.643382 156 146 144
-0.077691 -0.190435 0.643946 155 145 143
-0.074571 -0.192160 0.644495 156 146 144
-0.071440 -0.193555 0.644833 155 145 143
-0.068297 -0.195341 0.645416 155 145 143
-0.065142 -0.197033 0.645938 156 146 144
-0.061970 -0.199282 0.646807 154 144 142
-0.058788 -0.201133 0.647424 154 144 142
-0.055600 -0.202677 0.647846 155 145 143
-0.052409 -0.203797 0.648001 153 143 141
-0.049215 -0.204794 0.648078 152 142 140
-0.045984 -0.206789 0.648777 152 142 140
-0.042740 -0.208792 0.649479 152 142 140
-0.039474 -0.211030 0.650326 152 142 140
-0.036181 -0.213574 0.651361 151 141 139
-0.032875 -0.216026 0.652335 151 141 139
-0.029569 -0.218083 0.653060 149 139 137
-0.026263 -0.219859 0.653608 150 140 138
-0.022924 -0.222052 0.654414 149 139 137
-0.019592 -0.223826 0.654957 149 139 137
-0.016286 -0.224965 0.655104 150 140 138
