14.176153 -4.827243 10.542562 119 103 104
14.235781 -4.853236 10.504678 98 87 91
14.275635 -4.871549 10.455853 99 85 82
14.320118 -4.891683 10.409027 165 152 146
14.388357 -4.921099 10.373929 123 102 97
14.437487 -4.943086 10.328446 120 100 99
14.479197 -4.962197 10.278741 94 73 68
14.528693 -4.984365 10.232490 73 54 48
14.581200 -5.007730 10.187222 91 72 68
14.626023 -5.028112 10.137686 107 94 88
14.667332 -5.047137 10.086006 222 195 176
14.689594 -5.058722 10.024837 147 116 88
14.714174 -5.071225 9.964540 223 208 185
14.730808 -5.080623 9.900298 211 198 179
14.767091 -5.097731 9.844958 204 193 173
14.809171 -5.117127 9.791903 230 224 210
14.857981 -5.139182 9.741461 224 220 208
14.921124 -5.166884 9.696921 229 227 214
14.990607 -5.197103 9.654537 222 220 207
15.051778 -5.224082 9.607834 220 220 208
15.112925 -5.251076 9.560502 219 219 207
15.188575 -5.283802 9.518725 218 218 206
15.254062 -5.312557 9.471913 220 218 206
15.327422 -5.344440 9.427711 220 218 206
15.395772 -5.374378 9.380713 221 219 207
15.471216 -5.407140 9.335900 219 217 205
15.540257 -5.437407 9.287766 218 216 203
15.612318 -5.468894 9.240128 219 217 202
15.683722 -5.500151 9.191507 214 212 197
15.753701 -5.530873 9.141620 220 217 200
15.832546 -5.565128 9.094391 215 212 195
15.914427 -5.600616 9.047503 226 223 204
15.993503 -5.635027 8.998755 213 210 193
16.073389 -5.669791 8.949504 220 218 203
16.157110 -5.706106 8.900824 223 221 206
16.232464 -5.739138 8.848339 220 219 201
16.312092 -5.773896 8.796587 223 222 204
16.390116 -5.808049 8.743482 225 222 207
16.459045 -5.838624 8.686513 229 225 213
16.538040 -5.873224 8.632207 228 224 212
16.616798 -5.907762 8.577029 242 238 226
16.874355 -6.013417 8.578822 79 73 61
17.189772 -6.142194 8.596395 84 78 66
17.285374 -6.183615 8.541988 83 77 65
17.345182 -6.210822 8.475602 79 71 60
17.386103 -6.230528 8.402904 71 63 52
17.410122 -6.243514 8.324769 67 59 48
17.452366 -6.263777 8.251733 79 71 60
17.507612 -6.289245 8.182014 92 84 73
17.557371 -6.312544 8.110197 108 101 85
17.591457 -6.329603 8.033541 120 113 94
17.651430 -6.357020 7.963593 128 121 102
17.714224 -6.385589 7.893797 134 127 108
17.762688 -6.408452 7.819624 140 133 117
17.800770 -6.427176 7.742303 150 142 129
17.825422 -6.440540 7.661228 130 120 108
17.871517 -6.462504 7.585202 83 75 62
17.925671 -6.487716 7.510665 85 77 66
17.979061 -6.512643 7.435409 110 102 91
18.045216 -6.542714 7.362573 97 89 78
18.106594 -6.570893 7.287997 92 84 71
18.177069 -6.602750 7.214820 138 131 115
18.271856 -6.644406 7.146190 163 156 138
18.342489 -6.676388 7.071514 157 151 139
18.413906 -6.708714 6.996294 104 100 91
18.496197 -6.745445 6.922544 55 52 43
18.599327 -6.790600 6.852045 62 62 52
18.679176 -6.826418 6.776075 52 49 42
18.787161 -6.873608 6.704525 39 31 28
18.905334 -6.924951 6.633727 33 19 18
19.016640 -6.973569 6.560537 56 38 38
19.186234 -7.045764 6.496150 59 36 30
19.321159 -7.104025 6.424328 50 30 23
14.116225 -4.728981 10.570486 206 193 185
14.183600 -4.757606 10.537352 180 167 161
14.246051 -4.784367 10.500937 116 106 104
14.282761 -4.801263 10.450453 113 100 91
14.326224 -4.820771 10.403093 161 149 137
14.391537 -4.848699 10.366484 123 105 93
14.440626 -4.870411 10.320992 120 101 94
14.481456 -4.888963 10.270864 128 110 98
14.531217 -4.910970 10.224763 122 105 97
14.581916 -4.933361 10.178622 125 106 100
14.623597 -4.952293 10.127587 125 110 103
14.662230 -4.970068 10.074670 209 181 160
14.684669 -4.981604 10.013658 145 114 86
14.705994 -4.992719 9.951902 225 210 187
14.727842 -5.004045 9.890182 209 196 177
14.764661 -5.021167 9.835146 203 192 174
14.805285 -5.039777 9.781476 230 224 210
14.851499 -5.060567 9.729918 225 221 209
14.914302 -5.087801 9.685286 230 228 215
14.985641 -5.118368 9.643777 222 220 207
15.049067 -5.145895 9.598105 219 219 207
15.110319 -5.172605 9.550862 218 218 206
15.184263 -5.204265 9.508394 218 218 206
15.249401 -5.232535 9.461485 218 218 206
15.322263 -5.263834 9.417121 220 218 206
15.389502 -5.292975 9.369722 219 217 205
15.464514 -5.325167 9.324789 219 217 204
15.534709 -5.355515 9.277176 217 215 202
15.605126 -5.385978 9.228944 221 219 204
15.675637 -5.416505 9.180041 214 212 197
15.745137 -5.446667 9.130039 220 217 202
15.824614 -5.480748 9.083117 215 212 195
15.907508 -5.516193 9.036672 224 221 202
15.984474 -5.549359 8.987206 211 208 191
16.066355 -5.584475 8.938752 221 219 204
16.152136 -5.621148 8.890870 221 219 204
16.230043 -5.654777 8.839343 221 219 204
16.312147 -5.690080 8.788492 222 220 205
16.391571 -5.724366 8.735896 224 222 209
16.461790 -5.755080 8.679391 227 225 213
16.550453 -5.793049 8.628319 228 224 212
16.626539 -5.826122 8.572232 241 237 225
16.888622 -5.932179 8.575379 86 82 71
17.208427 -6.060992 8.594188 85 81 70
17.320314 -6.108302 8.544800 83 79 68
17.389530 -6.138896 8.481171 85 78 68
17.447079 -6.164931 8.413323 83 76 66
17.487352 -6.184196 8.339771 79 72 62
17.553528 -6.213668 8.273382 75 67 56
17.618391 -6.242650 8.205956 69 61 50
17.668112 -6.265693 8.133614 70 62 51
17.707447 -6.284665 8.057904 79 71 60
17.769264 -6.312515 7.987913 99 91 78
17.835814 -6.342257 7.918566 112 105 89
17.872564 -6.360265 7.840765 123 116 98
17.920767 -6.382809 7.765537 133 126 107
17.948097 -6.397127 7.684589 138 131 113
17.992596 -6.418242 7.607601 151 144 128
18.046579 -6.443124 7.532459 156 149 133
18.101751 -6.468500 7.457062 116 106 94
18.166069 -6.497518 7.383226 77 67 55
18.233727 -6.527883 7.309505 98 89 74
18.306829 -6.560435 7.236309 118 109 94
18.385767 -6.595329 7.163640 90 81 64
18.444593 -6.622277 7.085950 110 98 82
18.507080 -6.650700 7.008425 148 136 122
18.572454 -6.680295 6.930859 157 149 138
18.659296 -6.718446 6.856831 199 192 184
18.731239 -6.750710 6.779101 55 50 44
18.831545 -6.794282 6.705903 49 46 41
18.942636 -6.842187 6.633641 58 53 49
19.049524 -6.888463 6.559527 44 39 33
19.205008 -6.954140 6.492596 32 22 20
19.332245 -7.008621 6.419445 43 27 27
19.436874 -7.054140 6.341405 48 27 26
19.556831 -7.105815 6.264688 68 44 40
14.129259 -4.661859 10.568305 48 37 31
14.198043 -4.690661 10.535867 77 66 60
14.259691 -4.716790 10.498975 129 124 121
14.296387 -4.733490 10.448450 201 191 181
14.340193 -4.752900 10.401229 198 188 176
14.401626 -4.779013 10.362581 148 131 121
14.449293 -4.799928 10.316348 131 114 106
14.489335 -4.817966 10.265816 137 120 110
14.538836 -4.839613 10.219574 121 107 98
14.589457 -4.861707 10.173386 125 106 99
14.628731 -4.879506 10.121179 139 122 114
14.662045 -4.895051 10.065717 209 178 157
14.684781 -4.906584 10.004896 151 120 91
14.704416 -4.916945 9.942394 225 213 189
14.721992 -4.926528 9.878745 210 199 179
14.761093 -4.944326 9.824827 199 188 170
14.806004 -4.964356 9.773165 230 224 210
14.849368 -4.983814 9.720356 224 222 209
14.913012 -5.011035 9.676133 230 228 215
14.984099 -5.041126 9.634541 222 220 207
15.047434 -5.068282 9.588865 218 218 206
15.108298 -5.094518 9.541492 218 218 206
15.181499 -5.125501 9.498739 217 217 205
15.247495 -5.153754 9.452229 217 217 205
15.322099 -5.185332 9.408621 219 217 205
15.388355 -5.213740 9.360847 219 217 204
15.463369 -5.245534 9.315943 218 216 203
15.531956 -5.274892 9.267721 213 211 198
15.599977 -5.304060 9.218588 218 216 203
15.669756 -5.333931 9.169454 217 215 200
15.740327 -5.364135 9.119921 218 215 200
15.821839 -5.398575 9.073817 214 211 196
15.903435 -5.433081 9.026924 224 219 200
15.979040 -5.465312 8.977005 212 209 192
16.059801 -5.499561 8.928196 217 214 199
16.147738 -5.536607 8.881143 221 219 206
16.228146 -5.570787 8.830548 222 220 205
16.311022 -5.605951 8.780002 221 219 204
16.392406 -5.640573 8.728112 224 222 209
16.463003 -5.671060 8.671762 226 223 214
16.556347 -5.710367 8.622265 227 225 212
16.637060 -5.744827 8.567695 238 236 223
16.890215 -5.846033 8.567853 85 83 71
17.211178 -5.973588 8.586936 95 92 83
17.330303 -6.023106 8.539809 93 89 80
17.400894 -6.053867 8.476591 88 84 75
17.466093 -6.082567 8.411041 90 86 77
17.517586 -6.105976 8.340775 85 78 70
17.604418 -6.143120 8.280295 82 76 64
17.690207 -6.179894 8.218647 81 74 64
17.764765 -6.212340 8.152979 78 71 63
17.820490 -6.237495 8.081362 73 66 58
17.893204 -6.269280 8.013797 68 61 53
17.962044 -6.299586 7.944473 68 62 50
17.998142 -6.317173 7.865919 83 76 60
18.047152 -6.339804 7.790314 103 96 78
18.075539 -6.354417 7.709052 120 113 97
18.122732 -6.376374 7.632134 133 126 110
18.179203 -6.401970 7.556982 141 134 116
18.237206 -6.428186 7.481630 147 140 121
18.300455 -6.456474 7.406910 161 153 134
18.367367 -6.486218 7.332386 161 152 135
18.437347 -6.517189 7.257871 101 91 79
18.513056 -6.550428 7.183889 83 73 64
18.564459 -6.574186 7.104047 109 101 90
18.612741 -6.596743 7.023056 105 97 84
18.673267 -6.624115 6.944035 91 83 70
18.745575 -6.656129 6.866708 128 120 107
18.797750 -6.680276 6.784841 163 155 142
18.886690 -6.718871 6.709247 208 200 187
18.992239 -6.764022 6.635748 74 68 56
19.088209 -6.805452 6.559518 69 65 53
19.214058 -6.858663 6.487392 64 60 51
19.341087 -6.912388 6.414196 59 52 46
19.442745 -6.956185 6.335684 36 26 24
19.573456 -7.011457 6.260634 24 12 12
14.123871 -4.587852 10.556243 63 55 53
14.195621 -4.617395 10.525421 95 86 87
14.254538 -4.642177 10.487124 77 72 76
14.295544 -4.660292 10.438907 30 22 19
14.339992 -4.679711 10.392053 54 45 40
14.403590 -4.706308 10.354533 133 120 114
14.451100 -4.726912 10.308240 186 172 171
14.492305 -4.745174 10.258316 178 164 161
14.545010 -4.767761 10.213675 149 135 126
14.595328 -4.789474 10.167336 132 113 106
14.633825 -4.806776 10.114760 146 129 119
14.660237 -4.819560 10.056001 208 178 154
14.682694 -4.830868 9.995106 153 120 89
14.704303 -4.841867 9.933591 221 209 183
14.719055 -4.850298 9.868682 206 195 175
14.759615 -4.868439 9.815490 197 186 168
14.803348 -4.887789 9.763333 230 224 210
14.848263 -4.907601 9.711272 223 221 208
14.911325 -4.934266 9.666821 229 227 214
14.984698 -4.964840 9.626262 219 220 206
15.048574 -4.991866 9.580844 219 219 207
15.108373 -5.017377 9.533035 218 218 206
15.182560 -5.048344 9.490722 217 217 205
15.249446 -5.076584 9.444607 217 217 205
15.326561 -5.108716 9.402047 219 217 204
15.391636 -5.136327 9.353796 219 217 204
15.463951 -5.166703 9.307809 216 214 201
15.533022 -5.195881 9.259806 215 213 200
15.601896 -5.225012 9.211029 218 216 203
15.669738 -5.253780 9.161160 216 214 201
15.738914 -5.283081 9.111123 216 212 200
15.819092 -5.316583 9.064545 219 216 201
15.899841 -5.350333 9.017374 225 219 203
15.976919 -5.382723 8.968041 214 208 192
16.058092 -5.416699 8.919417 218 215 200
16.146206 -5.453347 8.872458 218 216 203
16.229824 -5.488319 8.823028 220 218 203
16.316000 -5.524301 8.773644 219 220 206
16.396349 -5.558097 8.721402 223 223 211
16.470081 -5.589407 8.666123 224 224 214
16.558496 -5.626341 8.614977 225 223 211
16.655249 -5.666491 8.565665 236 234 221
16.879406 -5.755288 8.556351 138 136 124
17.200655 -5.881238 8.575494 103 100 91
17.325775 -5.932411 8.530302 88 85 78
17.399345 -5.963937 8.468060 76 71 65
17.475428 -5.996453 8.405838 88 83 77
17.536915 -6.023416 8.338531 88 83 77
17.625483 -6.060769 8.278496 88 84 75
17.731630 -6.104889 8.222596 85 81 72
17.819963 -6.142227 8.160625 81 77 66
17.890844 -6.172910 8.092957 81 74 64
17.983685 -6.212044 8.030525 78 71 61
18.067724 -6.247839 7.964824 79 73 61
18.122772 -6.272535 7.890728 73 66 56
18.181503 -6.298668 7.817028 67 60 50
18.211384 -6.313735 7.735520 74 66 53
18.266426 -6.338490 7.659894 92 85 69
18.323738 -6.364142 7.584267 110 103 87
18.382963 -6.390552 7.508520 130 123 107
18.442019 -6.416921 7.432146 141 134 116
18.508411 -6.446140 7.356835 147 140 122
18.572805 -6.474616 7.280425 155 148 130
18.641230 -6.504673 7.204240 169 162 144
18.686544 -6.525836 7.122527 146 140 126
18.731634 -6.546931 7.040321 81 78 63
18.783392 -6.570620 6.959003 90 84 68
18.844540 -6.597960 6.878999 114 108 92
18.894016 -6.620810 6.796177 97 90 74
18.961494 -6.650647 6.716186 99 93 79
19.042189 -6.685627 6.637892 150 144 132
19.118612 -6.718987 6.558049 171 164 154
19.208891 -6.757748 6.479789 173 169 160
19.307911 -6.799935 6.402061 54 51 44
19.407455 -6.842366 6.323426 54 49 43
19.507929 -6.885199 6.243938 62 54 51
19.633797 -6.937936 6.167227 52 43 38
14.120836 -4.514892 10.545465 45 40 46
14.197133 -4.545726 10.517082 42 41 46
14.254735 -4.569713 10.478107 44 45 49
14.293921 -4.586942 10.428974 163 163 165
14.343259 -4.607927 10.384680 58 53 57
14.408885 -4.634936 10.348196 62 53 58
14.456650 -4.655384 10.302034 37 28 33
14.496604 -4.672969 10.251493 30 24 26
14.551503 -4.696088 10.207942 80 72 69
14.599887 -4.716823 10.160653 162 148 145
14.633748 -4.732209 10.105844 199 190 181
14.652474 -4.742013 10.043448 215 180 158
14.676792 -4.753892 9.983522 156 124 99
14.700316 -4.765487 9.922986 222 210 188
14.721176 -4.776104 9.860985 204 197 178
14.765332 -4.795364 9.809468 195 188 169
14.805746 -4.813254 9.755814 232 226 212
14.850641 -4.832823 9.703767 223 221 208
14.911684 -4.858404 9.658433 228 226 213
14.984495 -4.888382 9.617646 219 220 206
15.050117 -4.915717 9.573009 219 219 207
15.110351 -4.941075 9.525408 217 217 205
15.185320 -4.971941 9.483438 216 216 204
15.252838 -5.000063 9.437598 216 216 204
15.330353 -5.031937 9.395206 217 217 205
15.395697 -5.059305 9.347073 218 216 204
15.464803 -5.088103 9.299798 215 213 200
15.534344 -5.117090 9.252004 215 213 200
15.603314 -5.145894 9.203286 217 215 202
15.672135 -5.174669 9.153819 212 210 195
15.742041 -5.203877 9.104075 217 215 200
15.817829 -5.235313 9.055850 223 221 206
15.899118 -5.268839 9.008909 219 216 199
15.975565 -5.300584 8.959374 215 212 195
16.057098 -5.334265 8.910913 214 211 194
16.144876 -5.370320 8.863860 219 217 202
16.234678 -5.407169 8.816636 218 216 201
16.324390 -5.444021 8.768478 223 221 208
16.403101 -5.476780 8.715662 221 221 209
16.482033 -5.509653 8.662130 224 224 212
16.566534 -5.544652 8.609651 226 222 210
16.669189 -5.586510 8.562246 229 226 211
16.878288 -5.668453 8.547985 224 221 206
17.178215 -5.784667 8.560309 233 227 211
17.309454 -5.837478 8.517148 215 210 191
17.382307 -5.868341 8.454807 213 207 191
17.465366 -5.903081 8.394807 106 98 85
17.542713 -5.935700 8.332287 86 76 64
17.641771 -5.976545 8.275301 81 77 66
17.753220 -6.022108 8.220857 86 84 72
17.847603 -6.061270 8.160508 91 87 76
17.924498 -6.093858 8.094398 90 86 77
18.019987 -6.133510 8.032544 85 81 72
18.118465 -6.174332 7.970526 84 80 71
18.189964 -6.204978 7.900503 83 74 65
18.270132 -6.238937 7.831979 80 68 56
18.327679 -6.264354 7.756999 80 72 59
18.414841 -6.301026 7.688700 70 64 50
18.493153 -6.334374 7.617406 68 60 47
18.558817 -6.362952 7.542362 77 69 56
18.612520 -6.387013 7.463921 99 93 79
18.685606 -6.418462 7.389298 123 117 103
18.748201 -6.445951 7.311646 134 127 111
18.800901 -6.469700 7.231251 147 140 124
18.843826 -6.489749 7.148288 156 149 133
18.895197 -6.513031 7.066628 164 157 139
18.942583 -6.534816 6.983669 170 163 145
18.982647 -6.553828 6.898822 130 123 105
19.019634 -6.571681 6.813000 83 76 58
19.072008 -6.595422 6.729647 96 89 73
19.134363 -6.622996 6.647563 114 106 93
19.197424 -6.650865 6.564983 91 83 72
19.273617 -6.683780 6.483994 109 103 87
19.357931 -6.719832 6.403577 156 150 134
19.448286 -6.758230 6.323277 205 199 187
19.528210 -6.792671 6.240475 81 74 66
19.618702 -6.831191 6.158447 72 65 59
14.150064 -4.453773 10.551962 92 79 86
14.222032 -4.482641 10.521144 85 76 81
14.283401 -4.507695 10.484041 46 42 43
14.328628 -4.526916 10.437934 184 182 183
14.374034 -4.546221 10.391467 54 48 50
14.443110 -4.574142 10.356601 61 52 57
14.492770 -4.595034 10.311250 59 53 55
14.533488 -4.612695 10.260939 66 62 61
14.583682 -4.633820 10.214903 63 59 58
14.628344 -4.652951 10.165660 43 37 37
14.651779 -4.664368 10.105705 55 55 47
14.667822 -4.673100 10.041982 90 55 33
14.689310 -4.683824 9.980684 157 125 100
14.711765 -4.694910 9.919631 224 209 188
14.725847 -4.702947 9.854481 206 195 175
14.765072 -4.720174 9.800716 195 184 164
14.801456 -4.736378 9.745275 231 225 211
14.840249 -4.753478 9.690553 223 221 208
14.903662 -4.779603 9.646348 229 227 214
14.975410 -4.808805 9.605155 219 220 206
15.044625 -4.837109 9.562146 218 218 206
15.110140 -4.864084 9.516859 217 217 205
15.185758 -4.894791 9.475183 217 217 205
15.250667 -4.921598 9.428277 217 217 205
15.330025 -4.953738 9.386677 216 216 204
15.396505 -4.981179 9.339035 219 217 205
15.466265 -5.009853 9.292046 214 212 199
15.535851 -5.038490 9.244288 217 215 202
15.604343 -5.066753 9.195402 218 216 201
15.672104 -5.094775 9.145549 209 207 192
15.744044 -5.124364 9.096610 221 219 204
15.820956 -5.155815 9.048823 219 217 202
15.901603 -5.188674 9.001651 220 217 200
15.977243 -5.219719 8.951836 213 210 193
16.061085 -5.253821 8.904223 214 212 197
16.147917 -5.289063 8.856835 214 212 197
16.239653 -5.326154 8.810296 217 215 200
16.324385 -5.360690 8.760411 222 220 207
16.399471 -5.391692 8.706388 221 221 209
16.476774 -5.423544 8.652357 223 223 211
16.566711 -5.460110 8.601730 226 224 212
16.679132 -5.505045 8.557524 227 225 213
16.884623 -5.584541 8.542023 225 223 208
17.136177 -5.681214 8.538978 227 222 203
17.269135 -5.733959 8.496572 227 221 199
17.353525 -5.768715 8.437998 204 196 175
17.450077 -5.808027 8.382230 228 217 199
17.543352 -5.846159 8.324526 236 223 207
17.647844 -5.888502 8.269140 207 190 180
17.766285 -5.936080 8.216682 137 123 112
17.865036 -5.976372 8.157521 78 70 59
17.952305 -6.012425 8.094215 79 75 64
18.050694 -6.052660 8.033036 85 85 77
18.149593 -6.093126 7.971004 89 89 81
18.238861 -6.130035 7.905483 90 85 79
18.332111 -6.168468 7.840081 87 80 72
18.402443 -6.198373 7.768029 89 82 72
18.501020 -6.238869 7.702180 87 80 70
18.598890 -6.279140 7.635175 81 72 63
18.694252 -6.318512 7.566603 81 75 63
18.772926 -6.351671 7.493253 77 71 59
18.858549 -6.387467 7.420675 73 67 53
18.923906 -6.415698 7.342804 88 81 65
18.976461 -6.439153 7.261545 111 104 86
19.024422 -6.460903 7.178807 130 123 105
19.076761 -6.484318 7.096490 141 134 116
19.125481 -6.506392 7.012936 149 142 124
19.160595 -6.523371 6.926267 157 150 132
19.187414 -6.537243 6.837692 168 161 143
19.237638 -6.559936 6.753156 167 160 142
19.300879 -6.587550 6.670448 109 102 86
19.359758 -6.613545 6.586358 84 77 61
19.420074 -6.640107 6.501927 110 102 91
19.490042 -6.670332 6.418476 105 97 86
19.564180 -6.702161 6.334991 92 86 72
19.615711 -6.725482 6.247307 137 131 117
19.681726 -6.754296 6.161261 161 155 141
14.166521 -4.387909 10.551614 101 81 83
14.237734 -4.416131 10.520324 111 95 96
14.299977 -4.441176 10.483618 72 62 61
14.339242 -4.458032 10.434363 195 187 185
14.385364 -4.477356 10.388240 83 71 71
14.457856 -4.506137 10.355069 103 91 91
14.510962 -4.528006 10.311406 97 86 84
14.556213 -4.547081 10.263298 100 90 88
14.604804 -4.567372 10.216384 78 72 72
14.649061 -4.586128 10.166869 60 54 54
14.667709 -4.595709 10.104543 225 222 215
14.679451 -4.602818 10.038734 156 120 98
14.699331 -4.612854 9.976666 164 132 107
14.724336 -4.624743 9.916802 224 207 187
14.736677 -4.632084 9.850835 210 198 176
14.768633 -4.646491 9.793728 195 182 163
14.800576 -4.660906 9.736300 231 225 211
14.833420 -4.675659 9.678959 223 221 208
14.896045 -4.701164 9.634466 228 226 213
14.972425 -4.731657 9.595357 218 219 205
15.041765 -4.759640 9.552440 218 218 206
15.109428 -4.787045 9.508110 217 217 205
15.185691 -4.817586 9.466729 217 217 205
15.251696 -4.844448 9.420307 216 216 204
15.331289 -4.876254 9.378818 216 216 204
15.396575 -4.902913 9.330711 215 215 203
15.466689 -4.931346 9.283890 216 214 201
15.535742 -4.959424 9.235945 217 215 202
15.606140 -4.988018 9.187834 219 217 202
15.674500 -5.015901 9.138231 209 207 192
15.745877 -5.044906 9.089093 217 215 200
15.824585 -5.076603 9.041996 219 217 202
15.903649 -5.108463 8.994243 217 214 197
15.981120 -5.139775 8.945112 214 211 194
16.065702 -5.173706 8.897770 213 211 196
16.151196 -5.208003 8.849905 219 217 202
16.244148 -5.245052 8.803797 217 215 202
16.327280 -5.278560 8.753362 221 219 206
16.404436 -5.309922 8.700059 221 221 209
16.479317 -5.340484 8.645221 222 222 210
16.570560 -5.377051 8.595037 224 224 214
16.685225 -5.422213 8.551554 224 224 214
16.882215 -5.497515 8.533270 224 222 209
17.103455 -5.581766 8.520637 229 223 207
17.228729 -5.630990 8.476023 233 225 204
17.324263 -5.669373 8.421083 216 204 180
17.426779 -5.710354 8.367280 226 211 190
17.537046 -5.754219 8.314732 127 111 95
17.650764 -5.799392 8.262076 164 153 133
17.774597 -5.848325 8.211157 219 206 187
17.873167 -5.888031 8.151933 241 226 207
17.961815 -5.924133 8.089000 214 201 185
18.057095 -5.962708 8.026967 123 113 101
18.160118 -6.004169 7.966024 74 70 61
18.258545 -6.043982 7.902861 81 78 71
18.354116 -6.082781 7.837986 94 89 83
18.435968 -6.116566 7.768738 93 86 78
18.542662 -6.159541 7.704735 87 80 72
18.645006 -6.200955 7.638623 90 83 75
18.746449 -6.242078 7.571279 88 81 73
18.852262 -6.284856 7.503919 85 81 70
18.972410 -6.332972 7.438706 86 82 70
19.053978 -6.366875 7.363856 85 79 65
19.123182 -6.396239 7.285553 76 70 54
19.186811 -6.423567 7.205400 74 68 52
19.248739 -6.450291 7.124270 91 85 69
19.301785 -6.473750 7.040765 115 108 90
19.342697 -6.492732 6.954392 133 126 108
19.372576 -6.507637 6.865542 144 137 119
19.421148 -6.529492 6.779828 153 146 128
19.482872 -6.556249 6.695979 155 148 130
19.539391 -6.581097 6.610619 170 161 144
19.596125 -6.606048 6.524737 154 146 133
19.666056 -6.635929 6.440447 93 85 74
14.171767 -4.318053 10.545278 190 172 172
14.247029 -4.347324 10.516112 159 145 144
14.315300 -4.374165 10.482532 76 66 65
14.348574 -4.388708 10.430129 200 190 188
14.391205 -4.406562 10.382197 94 80 77
14.467353 -4.436252 10.350867 115 97 95
14.520413 -4.457827 10.307159 109 90 86
14.570681 -4.478437 10.261531 115 97 93
14.624697 -4.500392 10.217247 106 93 87
14.670842 -4.519588 10.168585 102 88 85
14.686825 -4.528135 10.104912 236 227 218
14.694599 -4.533784 10.037167 153 113 88
14.712307 -4.542953 9.974045 165 133 110
14.738157 -4.555013 9.914557 220 207 188
14.754013 -4.563540 9.850197 206 198 179
14.782863 -4.576683 9.791625 188 181 163
14.808943 -4.588854 9.731518 231 225 213
14.839892 -4.602764 9.673331 224 222 209
14.898204 -4.626409 9.626925 229 227 214
14.974737 -4.656554 9.587891 219 220 206
15.041859 -4.683383 9.544025 217 217 205
15.107136 -4.709583 9.498702 217 217 205
15.182632 -4.739449 9.457029 216 216 204
15.249358 -4.766220 9.410951 215 215 203
15.324453 -4.796002 9.367642 216 216 204
15.388236 -4.821780 9.318988 216 216 204
15.461332 -4.850907 9.273430 216 214 201
15.530505 -4.878663 9.225587 217 215 200
15.601815 -4.907211 9.177884 213 211 196
15.673796 -4.936028 9.129727 204 202 187
15.746854 -4.965259 9.081261 212 211 193
15.825648 -4.996573 9.034215 216 215 197
15.904061 -5.027783 8.986239 219 216 199
15.985906 -5.060255 8.938730 216 213 196
16.071926 -5.094257 8.891907 214 212 197
16.157602 -5.128170 8.844096 218 216 203
16.252726 -5.165511 8.798736 218 216 203
16.335434 -5.198430 8.748137 220 218 206
16.418667 -5.231572 8.696888 221 221 209
16.496109 -5.262665 8.642866 221 221 209
16.587336 -5.298748 8.592615 220 222 211
16.691027 -5.339357 8.545497 224 224 214
16.859859 -5.403475 8.518158 226 224 211
17.062923 -5.480001 8.499885 228 225 208
17.194593 -5.530861 8.457467 235 227 204
17.297859 -5.571525 8.405082 202 188 161
17.399097 -5.611498 8.351053 218 202 179
17.529652 -5.662105 8.304636 162 149 133
17.659594 -5.712543 8.256730 100 81 64
17.784115 -5.761073 8.205979 137 119 97
17.880836 -5.799594 8.146222 203 189 163
17.963764 -5.833158 8.081718 221 209 185
18.053158 -5.869100 8.018125 208 197 177
18.151054 -5.908160 7.955881 232 223 206
18.256124 -5.949861 7.894515 209 202 186
18.360075 -5.991199 7.831814 138 132 118
18.448235 -6.026845 7.764146 83 75 64
18.554169 -6.068985 7.699927 90 83 73
18.650824 -6.107793 7.632436 93 89 80
18.754433 -6.149172 7.565603 95 91 82
18.872192 -6.195741 7.500966 92 88 79
18.999422 -6.245808 7.437264 91 87 78
19.101871 -6.286898 7.366881 89 85 74
19.200489 -6.326631 7.294659 88 84 72
19.287920 -6.362324 7.219123 86 82 70
19.361126 -6.392860 7.139828 87 81 69
19.427526 -6.420942 7.058459 75 69 55
19.491344 -6.448106 6.975935 74 68 54
19.537714 -6.468917 6.889502 92 85 69
19.594913 -6.493708 6.804593 117 110 94
19.656101 -6.519980 6.719829 129 120 103
14.171169 -4.246241 10.535836 98 84 83
14.250787 -4.276624 10.508983 93 81 81
14.319468 -4.303248 10.475611 77 68 69
14.355417 -4.318547 10.424609 201 192 193
14.396036 -4.335481 10.375646 151 137 136
14.469777 -4.363934 10.343081 138 120 118
14.524442 -4.385789 10.300193 120 101 97
14.577430 -4.407083 10.255925 108 88 87
14.637802 -4.430967 10.214761 115 96 90
14.687701 -4.451230 10.167892 105 90 85
14.701097 -4.458798 10.102937 238 228 216
14.699584 -4.461175 10.030750 151 110 82
14.712521 -4.468590 9.965403 169 139 115
14.742277 -4.481879 9.907783 218 207 189
14.765249 -4.492812 9.846739 202 194 175
14.791109 -4.504762 9.786790 187 181 167
14.814878 -4.515991 9.725644 230 226 214
14.850012 -4.531206 9.669338 223 221 208
14.906299 -4.553837 9.622014 227 225 212
14.977283 -4.581639 9.580537 219 220 206
15.044634 -4.608196 9.536782 218 218 206
15.110670 -4.634320 9.491793 218 218 206
15.182962 -4.662665 9.448774 216 216 204
15.249207 -4.688917 9.402518 215 215 203
15.320542 -4.716983 9.357689 216 216 204
15.385161 -4.742719 9.309422 216 216 204
15.461491 -4.772599 9.265198 216 214 201
15.531876 -4.800418 9.217858 216 214 199
15.599444 -4.827274 9.168717 217 215 200
15.670588 -4.855417 9.120275 208 205 188
15.744813 -4.884676 9.072294 213 210 193
15.823379 -4.915494 9.025198 214 213 195
15.903687 -4.946960 8.977959 218 215 198
15.986532 -4.979354 8.930840 216 213 196
16.073301 -5.013169 8.884304 218 216 201
16.162895 -5.048018 8.837900 220 218 205
16.254831 -5.083730 8.791416 218 216 204
16.340193 -5.117155 8.741747 220 218 206
16.424311 -5.150173 8.690801 220 220 208
16.504265 -5.181751 8.637620 221 221 209
16.596285 -5.217638 8.587613 222 222 210
16.692583 -5.255080 8.538071 225 223 210
16.845812 -5.312769 8.505733 226 222 210
17.032495 -5.382402 8.482357 227 224 209
17.170795 -5.434919 8.442152 235 229 205
17.278036 -5.476447 8.391118 209 193 167
17.380123 -5.516186 8.337468 204 187 167
17.522533 -5.570322 8.294642 165 156 147
17.674929 -5.628070 8.253269 234 228 216
17.799948 -5.676126 8.202599 155 143 129
17.891069 -5.712144 8.141231 82 65 47
17.972443 -5.744721 8.076287 182 164 144
18.057642 -5.778698 8.011560 225 208 188
18.148083 -5.814581 7.947363 209 197 175
18.248440 -5.854044 7.884825 208 200 179
18.349478 -5.893793 7.821456 202 191 171
18.439512 -5.929645 7.754347 235 223 207
18.542303 -5.970100 7.689441 216 207 192
18.637905 -6.008022 7.621797 137 131 117
18.743980 -6.049736 7.555638 73 71 59
18.865438 -6.097012 7.491927 90 87 78
19.000158 -6.149095 7.429957 99 94 88
19.113163 -6.193436 7.361908 99 94 88
19.215536 -6.234003 7.290467 95 92 83
19.311028 -6.272139 7.216577 92 88 79
19.405510 -6.309949 7.141529 92 88 79
19.499712 -6.347698 7.065486 87 83 72
19.590752 -6.384346 6.987896 86 79 69
19.662148 -6.413952 6.905716 82 76 64
14.173626 -4.175598 10.528037 73 55 55
14.254622 -4.206033 10.501904 70 55 58
14.321124 -4.231555 10.467390 57 48 51
14.359221 -4.247399 10.417526 188 179 182
14.397069 -4.263175 10.367159 78 66 66
14.468289 -4.290379 10.333323 106 92 89
14.527588 -4.313533 10.292793 122 107 102
14.583671 -4.335609 10.250072 152 137 134
14.646307 -4.359954 10.210013 161 146 141
14.698826 -4.380856 10.164405 137 125 125
14.713383 -4.388756 10.100005 238 229 220
14.702784 -4.388028 10.023493 152 111 83
14.712861 -4.394396 9.956837 176 146 122
14.747392 -4.409172 9.901482 217 204 185
14.777277 -4.422364 9.843646 213 198 175
14.803301 -4.434239 9.783756 189 181 162
14.826244 -4.445065 9.722224 232 226 212
14.864474 -4.461164 9.667281 224 222 209
14.920706 -4.483486 9.619889 228 226 213
14.985325 -4.508722 9.575587 219 220 206
15.050988 -4.534345 9.531089 219 219 207
15.116400 -4.559908 9.485826 218 218 206
15.186941 -4.587270 9.442065 216 216 204
15.253489 -4.613280 9.395941 216 216 204
15.325675 -4.641268 9.351462 216 216 206
15.390039 -4.666578 9.303095 216 216 204
15.467494 -4.696447 9.259316 216 214 201
15.538165 -4.723998 9.212087 216 214 201
15.603131 -4.749599 9.161927 216 213 198
15.672677 -4.776814 9.112879 209 206 191
15.747291 -4.805819 9.065060 209 206 189
15.827457 -4.836782 9.018574 211 208 191
15.910084 -4.868633 8.972194 216 213 196
15.993159 -4.900675 8.925150 214 211 194
16.080093 -4.934092 8.878660 211 209 194
16.167728 -4.967789 8.831550 217 215 202
16.259640 -5.003012 8.785054 218 216 204
16.348473 -5.037199 8.736578 220 218 206
16.433508 -5.070097 8.685926 219 219 207
16.508511 -5.099529 8.631075 220 220 208
16.597805 -5.133981 8.580173 224 222 209
16.689692 -5.169377 8.529219 226 223 208
16.838871 -5.224843 8.495599 229 223 211
17.016514 -5.290328 8.469404 228 224 212
17.155657 -5.342408 8.429545 238 232 210
17.271534 -5.386396 8.381228 200 185 156
17.370235 -5.424411 8.326627 200 185 164
17.519363 -5.480150 8.285828 169 164 160
17.698389 -5.546441 8.252148 31 30 35
17.827543 -5.595296 8.202547 98 96 97
17.912062 -5.628523 8.139237 248 245 240
17.996901 -5.661896 8.075171 160 153 143
18.083582 -5.695952 8.010755 83 70 61
18.170897 -5.730266 7.945641 71 55 42
18.264877 -5.766963 7.881375 76 58 44
18.360929 -5.804427 7.816695 81 62 47
18.444281 -5.837453 7.747910 170 152 132
18.534458 -5.872921 7.679954 223 211 189
18.622894 -5.907811 7.610683 216 209 190
18.723406 -5.947001 7.543342 240 238 223
18.846361 -5.994163 7.480103 155 151 140
18.980045 -6.045168 7.418024 114 109 103
19.102037 -6.092092 7.352064 87 82 76
19.207893 -6.133353 7.281460 89 86 79
19.315130 -6.175146 7.210084 92 89 80
19.421217 -6.216575 7.137408 99 96 87
19.518444 -6.254906 7.061927 96 92 83
19.622316 -6.295634 6.986755 90 86 77
19.719168 -6.333911 6.909235 90 83 75
14.168004 -4.102341 10.515957 110 89 88
14.250844 -4.132969 10.490828 115 96 98
14.318758 -4.158615 10.457085 56 44 48
14.356690 -4.174206 10.407185 202 191 195
14.398191 -4.191013 10.358731 97 86 84
14.466787 -4.216960 10.323577 96 81 74
14.525769 -4.239696 10.282918 84 67 60
14.583094 -4.261897 10.240849 58 43 38
14.646832 -4.286285 10.201353 57 42 37
14.710477 -4.310668 10.161174 57 47 48
14.718936 -4.316438 10.093837 246 239 231
14.702151 -4.313680 10.014424 145 104 76
14.708840 -4.318851 9.946233 171 143 119
14.744469 -4.333818 9.891450 216 204 182
14.775390 -4.347206 9.834149 214 197 171
14.807211 -4.360910 9.776954 191 180 160
14.832465 -4.372401 9.716491 233 227 213
14.869398 -4.387864 9.660978 225 223 210
14.925739 -4.409929 9.613638 228 226 213
14.989670 -4.434594 9.569036 219 220 206
15.055032 -4.459772 9.524410 218 218 206
15.117755 -4.484079 9.478011 217 217 205
15.187383 -4.510761 9.433883 217 217 205
15.255368 -4.536912 9.388377 216 216 204
15.328777 -4.564939 9.344413 216 216 206
15.391301 -4.589285 9.295313 216 216 206
15.466186 -4.617872 9.250525 216 214 202
15.536304 -4.644864 9.203108 214 212 199
15.601439 -4.670182 9.153051 222 219 204
15.672130 -4.697425 9.104481 212 209 194
15.749093 -4.726842 9.057580 215 212 197
15.829065 -4.757318 9.011035 212 209 192
15.912129 -4.788887 8.964831 221 218 201
15.998159 -4.821505 8.918875 217 214 197
16.085514 -4.854612 8.872533 211 209 194
16.171400 -4.887250 8.824797 218 216 204
16.265007 -4.922575 8.778893 218 216 204
16.353521 -4.956188 8.730304 220 218 206
16.436493 -4.987932 8.678954 219 219 207
16.511045 -5.016817 8.623968 220 220 208
16.598995 -5.050340 8.572638 221 221 209
16.693087 -5.086014 8.522413 226 223 208
16.834709 -5.138093 8.486370 229 223 211
17.005236 -5.200191 8.457952 228 224 213
17.144939 -5.251731 8.418327 237 231 209
17.265936 -5.296875 8.371633 201 186 155
17.367132 -5.335233 8.317829 195 178 158
17.529583 -5.394790 8.280950 159 155 154
17.729897 -5.467500 8.253335 31 33 46
17.864376 -5.517524 8.205095 36 36 48
17.951359 -5.551169 8.142320 19 16 23
18.038465 -5.584892 8.078711 186 180 184
18.130917 -5.620502 8.015664 153 147 147
18.218113 -5.654327 7.950316 214 209 205
18.311525 -5.690344 7.885700 195 188 180
18.399071 -5.724363 7.818674 240 230 220
18.469870 -5.752602 7.746633 134 113 92
18.547449 -5.783226 7.675532 230 212 188
18.628283 -5.815012 7.604434 218 210 187
18.721344 -5.851086 7.535372 228 225 206
18.838091 -5.895442 7.470762 227 224 209
18.967123 -5.944124 7.407716 231 225 213
19.089487 -5.990535 7.341932 235 231 220
19.200794 -6.033140 7.272584 195 193 181
19.313440 -6.076257 7.202403 104 102 90
19.424854 -6.118990 7.130850 89 87 75
19.533335 -6.160744 7.057610 89 86 77
19.636375 -6.200641 6.982245 100 96 87
19.739532 -6.240619 6.905877 94 90 81
14.154781 -4.026753 10.499865 110 91 85
14.240656 -4.057948 10.476403 112 97 94
14.310120 -4.083749 10.443534 61 49 51
14.350715 -4.100022 10.395084 189 177 179
14.396236 -4.117944 10.348748 108 93 88
14.466107 -4.143954 10.314263 115 95 86
14.524127 -4.166062 10.273149 119 94 87
14.577834 -4.186763 10.229321 117 92 87
14.646914 -4.212591 10.192491 118 98 91
14.709481 -4.236283 10.151810 101 87 86
14.719148 -4.242413 10.085114 238 228 218
14.696338 -4.237741 10.002911 149 105 76
14.705141 -4.243583 9.935801 177 149 125
14.737226 -4.257184 9.879428 211 200 182
14.769964 -4.271015 9.823043 207 192 169
14.807591 -4.286490 9.768558 190 183 165
14.839146 -4.299954 9.710970 230 226 214
14.873264 -4.314286 9.654214 225 223 210
14.932259 -4.336945 9.608047 228 226 213
14.994579 -4.360739 9.562738 220 221 207
15.060126 -4.385638 9.518191 219 219 207
15.121229 -4.409076 9.471107 218 218 206
15.187963 -4.434425 9.425772 217 217 205
15.255337 -4.460016 9.380034 216 216 204
15.329572 -4.487936 9.336431 215 215 205
15.393112 -4.512297 9.287766 216 216 206
15.463976 -4.539142 9.241387 215 215 203
15.533170 -4.565456 9.193645 216 214 201
15.599581 -4.590862 9.144131 218 215 200
15.673554 -4.618840 9.096853 213 210 195
15.752293 -4.648451 9.050641 214 211 196
15.831853 -4.678372 9.003950 214 211 196
15.915359 -4.709656 8.957916 219 216 199
16.004147 -4.742754 8.912966 214 211 194
16.091839 -4.775519 8.866735 213 211 198
16.178383 -4.807932 8.819223 217 215 203
16.272364 -4.842893 8.773435 219 217 205
16.360477 -4.875909 8.724693 220 218 206
16.440889 -4.906355 8.672469 219 219 207
16.521389 -4.936865 8.619473 220 221 207
16.605524 -4.968638 8.566864 218 222 208
16.697130 -5.002977 8.515828 225 223 211
16.832390 -5.052158 8.477743 227 223 212
16.988272 -5.108391 8.444748 227 224 215
17.131994 -5.160560 8.406449 236 230 208
17.251949 -5.204713 8.359519 201 185 152
17.366993 -5.247245 8.309929 202 184 162
17.540689 -5.309775 8.276335 157 153 152
17.747509 -5.383650 8.250514 32 36 48
17.879486 -5.432121 8.201490 23 27 39
17.971983 -5.467193 8.140203 28 31 40
18.066658 -5.503046 8.078586 178 181 186
18.163080 -5.539533 8.016492 32 36 39
18.253052 -5.573857 7.951747 31 32 34
18.347815 -5.609854 7.887337 29 28 26
18.437407 -5.644123 7.820682 193 190 185
18.494774 -5.667408 7.745177 157 135 114
18.559404 -5.693200 7.670864 233 211 187
18.631536 -5.721588 7.597689 222 212 187
18.724445 -5.757123 7.528614 231 226 206
18.840479 -5.800624 7.463858 233 227 211
18.963417 -5.846541 7.399474 230 224 208
19.076242 -5.889037 7.331674 230 227 212
19.182930 -5.929470 7.261450 225 223 208
19.298286 -5.972927 7.191955 230 228 213
19.414675 -6.016785 7.121518 226 224 211
19.529728 -6.060231 7.049660 201 199 187
19.637030 -6.101055 6.975172 100 97 88
19.751947 -6.144547 6.901035 75 72 63
14.128007 -3.947022 10.476623 146 133 127
14.218042 -3.979115 10.455483 103 92 88
14.294528 -4.006834 10.426394 53 42 40
14.342498 -4.025295 10.381855 201 187 186
14.391546 -4.044127 10.337388 112 97 92
14.463636 -4.070495 10.304063 119 100 93
14.525518 -4.093561 10.264914 115 92 84
14.578227 -4.113657 10.220611 115 88 81
14.644043 -4.138057 10.182198 123 98 93
14.702905 -4.160210 10.139758 105 87 85
14.715584 -4.167276 10.074596 239 225 216
14.693234 -4.162877 9.992705 143 102 74
14.704379 -4.169443 9.926764 175 149 124
14.742743 -4.184936 9.873353 210 198 176
14.778491 -4.199586 9.818362 204 192 168
14.811681 -4.213411 9.761858 191 179 165
14.839474 -4.225477 9.702605 231 227 215
14.875661 -4.240313 9.646807 225 223 210
14.933569 -4.262306 9.600180 225 226 212
14.994327 -4.285262 9.554213 221 221 209
15.057078 -4.308898 9.508493 218 218 206
15.117361 -4.331747 9.461103 219 219 207
15.183165 -4.356440 9.415423 217 217 205
15.248049 -4.380857 9.368707 217 217 205
15.320506 -4.407801 9.324436 217 217 205
15.385143 -4.432190 9.276287 216 216 204
15.457872 -4.459282 9.230717 216 216 204
15.528960 -4.485859 9.183776 217 215 203
15.598911 -4.512090 9.135685 216 214 202
15.675518 -4.540553 9.089445 216 214 202
15.753893 -4.569634 9.043109 219 217 205
15.833063 -4.599010 8.996286 216 214 202
15.917715 -4.630237 8.950690 223 220 205
16.006283 -4.662799 8.905668 213 211 196
16.093149 -4.694832 8.859153 219 217 204
16.176197 -4.725631 8.810424 219 216 207
16.267708 -4.759279 8.763806 219 217 205
16.357090 -4.792256 8.715547 218 219 205
16.440039 -4.823127 8.664223 219 219 207
16.521669 -4.853593 8.611635 220 220 208
16.612307 -4.887095 8.561181 221 221 211
16.708426 -4.922462 8.511588 222 222 210
16.833303 -4.967472 8.470158 227 225 212
16.975121 -5.018190 8.432763 228 226 211
17.118404 -5.069457 8.394399 233 228 209
17.251154 -5.117259 8.351416 198 184 157
17.371325 -5.160906 8.303370 205 190 169
17.548319 -5.223631 8.270709 167 163 160
17.746820 -5.293635 8.242441 19 23 34
17.874214 -5.339879 8.192142 24 28 40
17.963964 -5.373546 8.130155 29 33 45
18.057268 -5.408442 8.068238 174 175 179
18.153246 -5.444274 8.006105 30 29 34
18.243658 -5.478276 7.941561 51 46 50
18.341557 -5.514832 7.878038 90 85 89
18.430508 -5.548416 7.811292 184 183 179
18.486830 -5.571050 7.735618 159 132 111
18.547167 -5.595057 7.660357 227 211 186
18.616629 -5.622168 7.586659 221 209 185
18.703335 -5.655122 7.516265 234 228 212
18.820915 -5.698534 7.451995 229 226 209
18.943769 -5.743777 7.387721 228 226 211
19.058105 -5.786191 7.320380 228 226 213
19.166956 -5.826795 7.250742 228 226 213
19.281796 -5.869470 7.181255 228 225 210
19.398582 -5.912852 7.111017 231 225 211
19.512960 -5.955465 7.039145 229 223 209
19.626707 -5.997911 6.966013 231 229 216
19.745911 -6.042254 6.892764 240 235 216
14.069180 -3.857440 10.436460 210 196 183
14.171917 -3.893116 10.422280 225 211 200
14.252858 -3.921853 10.395747 236 223 215
14.311317 -3.943418 10.356842 218 203 196
14.378239 -3.967721 10.321661 146 132 123
14.462533 -3.997626 10.294568 122 105 95
14.511141 -4.016106 10.248823 104 86 74
14.566035 -4.036627 10.205699 107 87 76
14.636263 -4.062100 10.169524 113 93 84
14.691068 -4.082640 10.125186 105 86 80
14.693697 -4.086403 10.055326 243 229 220
14.682322 -4.085657 9.978820 137 97 71
14.698072 -4.093649 9.915147 174 150 126
14.736883 -4.109087 9.862013 212 197 176
14.774904 -4.124284 9.808134 202 190 166
14.809541 -4.138404 9.752346 192 180 166
14.837157 -4.150270 9.693069 231 227 215
14.875751 -4.165696 9.638390 226 224 211
14.932876 -4.187135 9.591447 225 226 212
14.996081 -4.210566 9.546570 221 221 209
15.056699 -4.233185 9.499954 218 218 206
15.114636 -4.254959 9.451602 218 218 206
15.180314 -4.279268 9.405909 217 217 205
15.245113 -4.303319 9.359198 216 216 204
15.314451 -4.328871 9.313693 216 216 204
15.379925 -4.353195 9.265940 216 216 204
15.454507 -4.380509 9.221157 216 216 204
15.523702 -4.406099 9.173514 217 215 203
15.597978 -4.433373 9.127152 217 215 203
15.675979 -4.461891 9.081474 209 207 195
15.755127 -4.490815 9.035450 216 214 202
15.833600 -4.519551 8.988385 216 216 204
15.918551 -4.550435 8.942917 223 220 205
16.009537 -4.583325 8.898787 214 212 199
16.097490 -4.615260 8.852665 215 213 201
16.181753 -4.646025 8.804365 218 215 206
16.273857 -4.679391 8.757948 220 218 206
16.358976 -4.710507 8.708220 218 219 205
16.439756 -4.740235 8.656184 219 219 207
16.521923 -4.770451 8.603802 219 219 207
16.616558 -4.804792 8.554677 223 220 211
16.716532 -4.840926 8.506326 222 222 210
16.841408 -4.885283 8.464862 226 224 211
16.970144 -4.930961 8.423352 229 226 211
17.100155 -4.977111 8.380946 236 231 212
17.246195 -5.028591 8.342071 202 190 166
17.377705 -5.075345 8.297426 209 197 175
17.555977 -5.137566 8.265096 159 155 152
17.737511 -5.200937 8.231913 76 81 87
17.865332 -5.246655 8.181798 127 131 140
17.955271 -5.279915 8.119941 83 86 95
18.045807 -5.313408 8.057350 171 171 171
18.141422 -5.348619 7.995212 70 65 69
18.229736 -5.381453 7.930215 85 79 83
18.335030 -5.419944 7.868690 92 85 92
18.424040 -5.453083 7.802029 184 183 179
18.482880 -5.476257 7.727059 159 133 110
18.536917 -5.497863 7.650352 229 213 188
18.596043 -5.521179 7.574316 220 208 184
18.685188 -5.554489 7.504629 234 228 214
18.807299 -5.598789 7.441504 229 226 211
18.931864 -5.643957 7.377706 228 226 213
19.044456 -5.685192 7.310081 228 226 214
19.154797 -5.725722 7.240863 228 226 213
19.268993 -5.767583 7.171340 229 227 212
19.385649 -5.810308 7.101175 229 226 211
19.500446 -5.852463 7.029487 232 226 210
19.613419 -5.894055 6.956308 227 224 209
19.737131 -5.939281 6.884002 236 225 205
13.990481 -3.762346 10.385886 217 201 178
14.075845 -3.791999 10.362997 215 198 178
14.148935 -3.817821 10.332886 213 197 181
14.198108 -3.836132 10.289760 215 202 186
14.290364 -3.868055 10.268052 210 197 180
14.410430 -3.908793 10.259418 216 203 186
14.478130 -3.933042 10.223480 232 219 202
14.539610 -3.955351 10.183798 223 207 192
14.611053 -3.980837 10.148367 183 165 151
14.669304 -4.002178 10.105848 122 105 95
14.675868 -4.007173 10.038040 246 232 221
14.671840 -4.008813 9.965166 137 103 78
14.690203 -4.017552 9.902822 166 144 123
14.727637 -4.032350 9.849128 208 195 176
14.766999 -4.047775 9.795947 203 191 169
14.800678 -4.061410 9.739805 185 173 157
14.832046 -4.074325 9.682299 229 225 213
14.870631 -4.089548 9.627680 225 223 210
14.926159 -4.110180 9.580093 225 226 212
14.991396 -4.133929 9.536154 221 221 209
15.051834 -4.156174 9.489513 219 219 207
15.108475 -4.177233 9.440668 217 217 205
15.173478 -4.200984 9.394750 216 216 204
15.239809 -4.225186 9.348732 216 216 204
15.306445 -4.249512 9.302177 215 215 203
15.372364 -4.273636 9.254671 216 216 204
15.447670 -4.300793 9.210236 217 215 203
15.516812 -4.326005 9.162634 217 215 203
15.592201 -4.353248 9.116761 216 214 202
15.670753 -4.381535 9.071344 214 212 200
15.751835 -4.410666 9.026098 216 214 202
15.830949 -4.439199 8.979313 217 215 203
15.915425 -4.469488 8.933705 222 219 204
16.009775 -4.502984 8.890825 215 211 199
16.099152 -4.534920 8.845230 214 212 200
16.185116 -4.565794 8.797544 217 214 205
16.278803 -4.599190 8.751677 219 217 205
16.363354 -4.629681 8.701756 219 217 204
16.447443 -4.660058 8.650838 220 218 206
16.530586 -4.690163 8.598769 221 219 207
16.627771 -4.724836 8.550454 223 221 209
16.727713 -4.760441 8.502056 222 222 210
16.848225 -4.802739 8.459165 227 225 212
16.969627 -4.845373 8.415347 229 226 211
17.086514 -4.886596 8.368934 234 231 214
17.231058 -4.936826 8.329679 198 188 163
17.373672 -4.986491 8.288410 215 202 183
17.559004 -5.050071 8.258142 155 154 152
17.729031 -5.108759 8.221643 31 35 44
17.858421 -5.154318 8.172028 24 28 39
17.955494 -5.189427 8.112207 15 17 29
18.047794 -5.223024 8.050127 179 179 179
18.142099 -5.257311 7.987664 135 131 132
18.226040 -5.288262 7.921561 151 142 145
18.337923 -5.328351 7.861770 106 100 104
18.426397 -5.360853 7.794996 177 174 169
18.485596 -5.383841 7.720156 158 132 109
18.535091 -5.403685 7.642397 228 212 187
18.583820 -5.423298 7.563972 221 209 185
18.676012 -5.457139 7.495090 235 229 215
18.806160 -5.503430 7.433852 230 226 214
18.929771 -5.547637 7.369876 228 226 213
19.042328 -5.588273 7.302289 228 226 214
19.153925 -5.628641 7.233380 228 226 213
19.265789 -5.669142 7.163418 226 227 213
19.378336 -5.709913 7.092482 226 227 213
19.490835 -5.750713 7.020417 230 227 210
19.604605 -5.791977 6.947477 229 226 211
19.729132 -5.836825 6.875401 231 218 199
13.929220 -3.673592 10.344639 211 196 167
14.008812 -3.701000 10.319044 222 206 181
14.064561 -3.721055 10.280302 218 203 180
14.088204 -3.731181 10.224537 219 204 183
14.153591 -3.754264 10.189740 215 203 181
14.263595 -3.791224 10.176723 209 197 175
14.353741 -3.822062 10.152718 213 200 181
14.425298 -3.847159 10.118650 209 196 179
14.506501 -3.875285 10.088573 214 198 182
14.585529 -3.902769 10.056633 203 190 173
14.614406 -3.914664 9.999959 224 212 196
14.636668 -3.924510 9.939879 141 113 92
14.663061 -3.935652 9.881514 170 149 130
14.700872 -3.950369 9.828170 189 176 160
14.745514 -3.967234 9.777575 202 190 166
14.782727 -3.981796 9.723183 189 177 161
14.820158 -3.996441 9.668521 230 226 214
14.865824 -4.013678 9.617130 227 225 212
14.922024 -4.034233 9.569891 225 226 212
14.990173 -4.058554 9.527253 221 221 209
15.052136 -4.080964 9.481297 219 219 207
15.110177 -4.102168 9.433070 217 217 205
15.174153 -4.125260 9.386742 216 216 204
15.242808 -4.149848 9.341701 215 215 203
15.308230 -4.173447 9.294665 216 216 204
15.375471 -4.197645 9.247706 215 215 203
15.450764 -4.224406 9.203273 218 216 204
15.518436 -4.248797 9.155107 217 215 203
15.593295 -4.275481 9.109043 216 214 202
15.669291 -4.302554 9.062670 215 213 201
15.749681 -4.331047 9.017193 216 214 202
15.830207 -4.359613 8.970966 217 215 203
15.914803 -4.389500 8.925426 223 220 205
16.012428 -4.423542 8.883749 214 210 198
16.104099 -4.455739 8.838978 217 213 202
16.191364 -4.486579 8.791746 217 214 205
16.285204 -4.519538 8.745919 219 217 205
16.371408 -4.550116 8.696555 219 217 204
16.457191 -4.580594 8.646191 220 218 206
16.540871 -4.610440 8.594277 221 219 207
16.639080 -4.644936 8.546265 223 219 208
16.734095 -4.678456 8.496248 222 222 210
16.850670 -4.718875 8.452094 227 225 212
16.962822 -4.757934 8.405402 229 225 213
17.069677 -4.795351 8.355971 234 231 216
17.214596 -4.844945 8.316918 202 191 169
17.374613 -4.899414 8.280879 206 195 175
17.561771 -4.962610 8.251124 167 167 165
17.721588 -5.017153 8.211691 31 34 49
17.849812 -5.061664 8.161801 27 30 47
17.952829 -5.098169 8.103691 25 27 42
18.046713 -5.131792 8.042087 178 177 182
18.138208 -5.164690 7.978916 80 75 79
18.222771 -5.195403 7.913033 84 75 78
18.335018 -5.235027 7.853379 90 81 84
18.422415 -5.266724 7.786389 185 180 174
18.482622 -5.289729 7.711867 160 132 110
18.529434 -5.308455 7.633534 221 205 180
18.573624 -5.326357 7.554129 220 208 184
18.666655 -5.359986 7.485530 233 227 215
18.803097 -5.407625 7.425779 230 226 214
18.923737 -5.450231 7.361194 228 226 213
19.038143 -5.490878 7.294067 228 226 214
19.153284 -5.531807 7.225960 227 225 212
19.265020 -5.571686 7.156011 228 226 213
19.374584 -5.610909 7.084517 229 227 214
19.489082 -5.651771 7.012899 229 226 211
19.604836 -5.693085 6.940383 229 227 212
19.733322 -5.738566 6.869072 233 225 204
13.893607 -3.593399 10.317019 214 200 174
13.969584 -3.619285 10.289721 213 198 175
14.026049 -3.639261 10.251569 214 199 178
14.047873 -3.648703 10.195110 221 206 187
14.099459 -3.667230 10.153535 219 204 183
14.187416 -3.696878 10.129710 210 195 174
