0.314714 0.110679 0.946395 53 54 58
0.317360 0.111202 0.944449 53 54 58
0.320281 0.111505 0.943027 50 54 57
0.324324 0.110945 0.943653 49 53 56
0.327476 0.111071 0.942651 49 53 56
0.329980 0.111684 0.940495 50 54 55
0.331170 0.113277 0.936027 24 28 31
0.331592 0.115421 0.930261 15 16 20
0.331885 0.117633 0.924345 17 18 22
0.333372 0.118936 0.920580 17 16 21
0.333193 0.121441 0.913988 16 15 20
0.336237 0.121571 0.912997 17 16 21
0.337507 0.122981 0.908996 17 17 19
0.339523 0.123837 0.906301 18 17 22
0.341969 0.124376 0.904356 18 17 23
0.345344 0.124251 0.903972 18 17 22
0.349134 0.123835 0.904268 17 16 21
0.351746 0.124248 0.902620 23 22 27
0.356051 0.123480 0.903740 23 23 25
0.359850 0.123070 0.904018 22 22 24
0.365380 0.121479 0.907057 23 23 25
0.370984 0.119856 0.910162 30 31 33
0.376677 0.118193 0.913356 46 47 49
0.382267 0.116620 0.916334 57 58 60
0.387677 0.115186 0.918982 67 67 69
0.391453 0.114857 0.919051 65 67 66
0.395528 0.114335 0.919569 66 68 67
0.399687 0.113763 0.920200 64 68 67
0.402656 0.113976 0.919005 66 70 69
0.404442 0.114956 0.916033 68 70 69
0.407012 0.115418 0.914264 70 72 71
0.410842 0.115065 0.914386 72 74 73
0.414106 0.115078 0.913660 72 74 73
0.417156 0.115227 0.912618 73 75 74
0.418914 0.116190 0.909696 74 76 75
0.421874 0.116388 0.908545 74 76 75
0.423929 0.117148 0.906096 74 76 75
0.426561 0.117542 0.904495 74 76 75
0.430082 0.117382 0.904170 73 75 74
0.433499 0.117288 0.903694 74 76 73
0.437878 0.116608 0.904564 75 77 74
0.441541 0.116371 0.904416 75 77 74
0.448462 0.114167 0.908780 75 77 76
0.448340 0.116220 0.903373 74 76 75
0.448002 0.118379 0.897729 73 74 76
0.449098 0.119663 0.894098 74 76 75
0.452167 0.119767 0.893171 74 76 73
0.453318 0.120998 0.889669 74 76 73
-0.310136 0.230243 0.768844 83 100 118
-0.308467 0.229300 0.771009 87 105 127
-0.306165 0.229390 0.770281 86 106 133
-0.304775 0.227929 0.773892 85 107 131
-0.302798 0.227437 0.774786 86 108 131
-0.300810 0.226951 0.775664 86 106 131
-0.298967 0.226188 0.777312 87 107 132
-0.296671 0.226224 0.776728 91 112 133
-0.294787 0.225500 0.778263 91 111 135
-0.292890 0.224776 0.779796 92 113 134
-0.290787 0.224420 0.780301 95 116 133
-0.288418 0.224567 0.779405 99 116 132
-0.286508 0.223813 0.781016 102 116 127
-0.284449 0.223331 0.781867 11 20 29
-0.282414 0.222782 0.782902 13 14 18
-0.280552 0.221851 0.784996 8 7 5
-0.279691 0.218752 0.793094 13 13 15
-0.286230 0.175756 0.909384 38 36 37
-0.284699 0.172869 0.916772 36 36 36
-0.283022 0.170214 0.923513 8 8 10
-0.280306 0.170052 0.923369 9 9 11
-0.277947 0.168964 0.925777 8 7 12
-0.274818 0.169852 0.922740 8 7 13
-0.271083 0.172414 0.915100 8 7 12
-0.267843 0.173739 0.910872 10 9 14
-0.263831 0.177314 0.900466 12 10 15
-0.258549 0.184771 0.879418 134 133 131
-0.254957 0.187583 0.871143 199 197 184
-0.252334 0.187574 0.870609 201 198 183
-0.249493 0.188255 0.868188 201 198 183
-0.246894 0.188187 0.867816 201 198 183
-0.244304 0.188082 0.867548 199 196 181
-0.241766 0.187797 0.867772 197 194 179
-0.239134 0.187821 0.867150 198 195 180
-0.236574 0.187587 0.867231 198 195 180
-0.233985 0.187445 0.867062 198 195 180
-0.231488 0.186927 0.867916 198 195 180
-0.228892 0.186780 0.867759 198 195 180
-0.226247 0.186827 0.867071 198 195 180
-0.223562 0.187050 0.865906 197 194 179
-0.220897 0.187205 0.864926 197 194 179
-0.218235 0.187355 0.863961 199 193 179
-0.215590 0.187430 0.863200 198 192 178
-0.212833 0.188100 0.860825 198 192 178
-0.210210 0.188104 0.860258 197 194 179
-0.207614 0.187944 0.860135 195 192 177
-0.204995 0.187912 0.859663 197 194 179
-0.202365 0.187945 0.859017 199 193 179
-0.199753 0.187853 0.858709 197 191 177
-0.197132 0.187819 0.858243 197 191 177
-0.194579 0.187253 0.859216 198 192 178
-0.191943 0.187290 0.858557 199 193 179
-0.189289 0.187497 0.857441 198 192 178
-0.186626 0.187827 0.855995 199 193 179
-0.183977 0.188063 0.854802 195 189 175
-0.181349 0.188105 0.854133 196 190 176
-0.178726 0.188094 0.853606 192 189 174
-0.176095 0.188182 0.852811 198 195 180
-0.173473 0.188164 0.852305 196 193 178
-0.170851 0.188117 0.851872 196 193 178
-0.168223 0.188185 0.851134 198 192 180
-0.165601 0.188124 0.850741 195 191 179
-0.162971 0.188350 0.849580 195 191 179
-0.160345 0.188646 0.848232 196 192 180
-0.157724 0.188805 0.847249 194 190 178
-0.155105 0.188905 0.846427 197 193 181
-0.152486 0.188845 0.846031 195 191 179
-0.149869 0.188936 0.845232 196 190 178
-0.147250 0.188904 0.844764 194 190 178
-0.144637 0.189045 0.843833 195 191 179
-0.142024 0.189126 0.843061 197 191 179
-0.139395 0.188941 0.842997 199 191 180
-0.136769 0.188832 0.842731 199 191 180
-0.134142 0.188741 0.842417 201 195 183
-0.131511 0.188626 0.842166 196 192 180
-0.128871 0.188440 0.842105 197 193 181
-0.126230 0.188273 0.841989 197 193 181
-0.123580 0.188064 0.841987 196 192 180
-0.120962 0.188142 0.841223 198 194 182
-0.118318 0.188011 0.841012 196 192 180
-0.115656 0.187769 0.841094 198 194 182
-0.113000 0.187600 0.840982 197 193 181
-0.110350 0.187486 0.840723 196 192 180
-0.107694 0.187351 0.840521 196 192 180
-0.105049 0.187295 0.840111 196 192 180
-0.102356 0.186986 0.840366 197 193 181
-0.099693 0.186857 0.840145 196 192 180
-0.097063 0.186903 0.839463 196 192 180
-0.094462 0.187084 0.838428 193 189 177
-0.091871 0.187293 0.837321 196 192 180
-0.089274 0.187458 0.836328 195 191 179
-0.086686 0.187651 0.835264 196 192 180
-0.084017 0.187506 0.835085 196 192 180
-0.081341 0.187347 0.834942 195 191 179
-0.078642 0.187110 0.835003 194 190 178
-0.076018 0.187162 0.834309 196 192 180
-0.073410 0.187267 0.833473 196 192 180
-0.070794 0.187336 0.832734 195 191 179
-0.068187 0.187434 0.831920 190 186 174
-0.065724 0.187987 0.829920 188 184 172
-0.063412 0.188976 0.826785 184 180 169
-0.061928 0.192417 0.817274 185 181 172
-0.060084 0.194614 0.811012 228 223 217
-0.057681 0.195097 0.809211 230 222 219
-0.055068 0.194970 0.808997 193 188 184
-0.052288 0.194392 0.809951 204 199 195
-0.049542 0.193935 0.810591 204 196 193
-0.046834 0.193598 0.810916 195 192 185
-0.044137 0.193305 0.811128 203 200 195
-0.041460 0.193072 0.811183 203 198 194
-0.038706 0.192666 0.811683 199 194 191
-0.036040 0.192485 0.811601 179 173 173
-0.033452 0.192493 0.811031 172 166 166
-0.030915 0.192619 0.810157 172 168 169
-0.028327 0.192625 0.809591 173 167 167
-0.025794 0.192752 0.808714 171 166 163
-0.023231 0.192809 0.808018 170 166 165
-0.020674 0.192876 0.807295 166 162 159
-0.018089 0.192886 0.806722 197 193 192
-0.015434 0.192752 0.806517 190 186 183
-0.012799 0.192661 0.806199 181 177 174
-0.010183 0.192614 0.805772 173 167 167
-0.007581 0.192594 0.805273 168 162 162
-0.004960 0.192540 0.804862 160 156 153
-0.002321 0.192453 0.804535 151 147 144
0.000335 0.192339 0.804274 149 145 142
0.003054 0.192116 0.804295 145 142 137
0.005858 0.191749 0.804681 140 137 132
0.008743 0.191253 0.805392 147 146 144
0.011537 0.190930 0.805665 148 146 147
0.014209 0.190820 0.805390 161 157 156
0.016767 0.190906 0.804619 175 171 168
0.019454 0.190777 0.804394 185 181 178
0.022179 0.190591 0.804312 196 192 191
0.024806 0.190566 0.803821 205 201 198
0.027454 0.190509 0.803412 214 210 207
0.029926 0.190728 0.802304 224 220 217
0.032387 0.190955 0.801175 226 222 219
0.035108 0.190787 0.801047 232 229 224
0.037746 0.190745 0.800598 236 232 229
0.040311 0.190812 0.799875 233 229 228
0.042615 0.191255 0.798203 234 230 227
0.044855 0.191779 0.796328 231 226 223
0.047468 0.191762 0.795817 229 224 220
0.049993 0.191870 0.794995 226 222 219
0.052600 0.191861 0.794464 226 221 218
0.055303 0.191724 0.794258 222 219 214
0.057962 0.191649 0.793893 225 221 218
0.060857 0.191263 0.794311 224 219 216
0.063869 0.190732 0.795090 225 222 217
0.066688 0.190466 0.795205 225 224 219
0.069339 0.190419 0.794768 228 221 213
0.071943 0.190432 0.794179 238 221 213
0.074764 0.190176 0.794265 247 228 221
0.077760 0.189708 0.794881 244 227 220
0.080540 0.189515 0.794807 226 215 211
0.083219 0.189449 0.794416 226 223 216
0.086115 0.189123 0.794671 227 224 217
0.088804 0.189052 0.794292 227 222 218
0.091434 0.189050 0.793739 224 220 217
0.094101 0.189005 0.793293 225 225 217
0.096682 0.189060 0.792597 220 223 212
0.099217 0.189166 0.791778 226 235 218
0.101760 0.189261 0.790983 195 204 187
0.104096 0.189586 0.789621 152 163 147
0.106321 0.190024 0.787976 163 174 157
0.108986 0.189976 0.787540 214 225 208
0.111866 0.189697 0.787676 225 226 218
0.114703 0.189469 0.787682 227 224 219
0.117689 0.189088 0.788067 226 223 218
0.120699 0.188689 0.788496 226 223 218
0.123711 0.188296 0.788908 223 222 217
0.126723 0.187909 0.789301 226 223 216
0.129308 0.187966 0.788602 225 222 215
0.131915 0.187999 0.787959 224 221 216
0.134637 0.187917 0.787601 224 221 216
0.137308 0.187887 0.787114 223 220 215
0.139877 0.187958 0.786381 224 221 216
0.142673 0.187807 0.786191 224 219 213
0.145381 0.187743 0.785787 224 219 213
0.148253 0.187523 0.785765 223 220 215
0.151154 0.187280 0.785799 223 220 215
0.153909 0.187179 0.785485 221 218 213
0.156716 0.187030 0.785287 222 219 214
0.159397 0.187001 0.784796 220 219 214
0.162086 0.186966 0.784320 218 217 212
0.164656 0.187040 0.783578 218 217 212
0.167433 0.186925 0.783296 220 219 214
0.170116 0.186897 0.782802 219 219 211
0.172848 0.186825 0.782415 220 219 214
0.175506 0.186820 0.781864 218 217 212
0.178034 0.186929 0.781036 220 217 212
0.181022 0.186638 0.781180 219 216 211
0.183905 0.186440 0.781096 220 217 212
0.186849 0.186195 0.781128 219 218 213
0.190108 0.185686 0.781796 216 215 210
0.193390 0.185165 0.782491 220 217 212
0.196820 0.184530 0.783462 218 217 212
0.200779 0.183465 0.785468 219 218 213
0.204480 0.182629 0.786917 219 218 214
0.295620 0.115808 0.946152 55 54 59
0.301003 0.114142 0.949462 52 53 58
0.304494 0.114001 0.949100 53 54 58
0.307326 0.114380 0.947485 51 55 58
0.310776 0.114270 0.947046 49 53 56
0.314374 0.114048 0.946877 48 52 55
0.316801 0.114732 0.944535 51 52 56
0.319212 0.115418 0.942190 50 51 55
0.322628 0.115331 0.941697 49 50 55
0.326266 0.115078 0.941602 47 48 53
0.327910 0.116324 0.937925 20 21 25
0.328255 0.118520 0.931983 19 18 23
0.327667 0.121376 0.924473 17 16 21
0.327771 0.123687 0.918276 15 14 19
0.329225 0.124982 0.914507 15 14 19
0.329834 0.126873 0.909325 16 15 20
0.331839 0.127733 0.906602 18 17 22
0.333170 0.129065 0.902760 17 16 21
0.334986 0.130034 0.899783 15 14 19
0.336649 0.131099 0.896584 21 20 25
0.340758 0.130434 0.897491 17 16 21
0.344019 0.130369 0.896973 17 16 21
0.346676 0.130723 0.895462 24 23 28
0.350297 0.130410 0.895533 23 22 27
0.353575 0.130335 0.895038 17 17 19
0.357959 0.129508 0.896317 21 21 23
0.361806 0.129054 0.896713 22 22 24
0.368454 0.126723 0.901532 25 25 27
0.374202 0.125023 0.904857 21 21 23
0.381947 0.122016 0.911249 30 30 32
0.387372 0.120578 0.913942 43 43 45
0.392222 0.119533 0.915704 56 56 58
0.397434 0.118265 0.917987 65 65 67
0.400988 0.118087 0.917710 67 67 69
0.403466 0.118605 0.915799 66 68 67
0.406363 0.118848 0.914535 70 72 71
0.410258 0.118453 0.914765 70 72 71
0.413314 0.118594 0.913739 70 72 71
0.417331 0.118129 0.914131 72 74 73
0.420181 0.118399 0.912805 73 75 74
0.422261 0.119146 0.910367 72 74 73
0.425287 0.119299 0.909316 74 74 74
0.427823 0.119752 0.907567 73 75 74
0.430857 0.119895 0.906542 73 75 74
0.434534 0.119645 0.906429 73 75 72
0.438151 0.119435 0.906225 75 77 74
0.441950 0.119116 0.906269 76 78 75
0.448745 0.117007 0.910465 77 79 76
0.449913 0.118273 0.906833 75 77 76
0.449267 0.120601 0.900748 74 76 75
0.450281 0.121926 0.896994 75 77 76
0.451408 0.123170 0.893429 73 75 74
0.454417 0.123304 0.892433 74 76 73
-0.311015 0.230273 0.775381 83 102 116
-0.309389 0.229237 0.777831 87 103 119
-0.307036 0.229383 0.776938 90 99 116
-0.305617 0.227949 0.780508 97 101 112
-0.303675 0.227371 0.781654 114 115 119
-0.301757 0.226732 0.782972 119 123 124
-0.299819 0.226109 0.784241 111 122 128
-0.297445 0.226253 0.783351 88 104 119
-0.295576 0.225474 0.785056 94 112 132
-0.293640 0.224794 0.786480 97 115 135
-0.291392 0.224683 0.786303 101 118 134
-0.289031 0.224785 0.785527 97 113 129
-0.287056 0.224132 0.786870 101 114 131
-0.285119 0.223380 0.788489 112 119 135
-0.283250 0.222459 0.790577 8 8 18
-0.281352 0.221565 0.792585 9 7 12
-0.279718 0.220078 0.796253 12 10 15
-0.278955 0.216648 0.805344 16 15 20
-0.284777 0.180693 0.903592 37 35 38
-0.283528 0.177206 0.912736 29 29 31
-0.282096 0.174009 0.921058 10 10 12
-0.279945 0.172467 0.924762 9 9 11
-0.277161 0.172473 0.924158 8 7 13
-0.274650 0.171762 0.925541 9 8 13
-0.270814 0.174577 0.917134 8 8 10
-0.267831 0.175182 0.914868 8 8 10
-0.264182 0.177696 0.907311 14 12 17
-0.258977 0.184847 0.886914 71 70 68
-0.254668 0.189719 0.872854 202 200 188
-0.252063 0.189652 0.872482 204 201 186
-0.249141 0.190580 0.869359 201 198 183
-0.246493 0.190674 0.868544 200 197 182
-0.243929 0.190493 0.868489 200 197 182
-0.241388 0.190223 0.868677 199 196 181
-0.238766 0.190221 0.868126 198 195 180
-0.236189 0.190054 0.868031 198 195 180
-0.233610 0.189880 0.867953 197 194 179
-0.231101 0.189423 0.868654 197 194 179
-0.228495 0.189323 0.868371 197 194 179
-0.225860 0.189343 0.867759 197 194 179
-0.223180 0.189556 0.866616 197 194 179
-0.220519 0.189701 0.865660 196 193 178
-0.217861 0.189842 0.864715 199 193 179
-0.215217 0.189926 0.863929 198 192 178
-0.212465 0.190581 0.861579 197 191 177
-0.209838 0.190620 0.860914 196 193 178
-0.207232 0.190536 0.860588 196 193 178
-0.204619 0.190485 0.860173 195 192 177
-0.201992 0.190522 0.859515 195 192 177
-0.199386 0.190409 0.859268 197 191 177
-0.196771 0.190357 0.858853 198 192 178
-0.194222 0.189775 0.859882 198 192 178
-0.191591 0.189795 0.859272 198 192 178
-0.188938 0.190012 0.858123 198 192 178
-0.186283 0.190294 0.856799 198 192 178
-0.183638 0.190521 0.855627 198 192 178
-0.181011 0.190570 0.854936 198 192 178
-0.178391 0.190551 0.854431 200 194 180
-0.175760 0.190681 0.853524 196 193 178
-0.173138 0.190692 0.852938 196 193 178
-0.170515 0.190723 0.852297 196 193 178
-0.167892 0.190769 0.851617 198 192 180
-0.165273 0.190699 0.851250 197 193 181
-0.162647 0.190901 0.850149 195 191 179
-0.160025 0.191121 0.849000 195 191 179
-0.157407 0.191327 0.847888 195 191 179
-0.154791 0.191456 0.846986 194 190 178
-0.152176 0.191454 0.846436 196 192 180
-0.149562 0.191504 0.845748 198 192 180
-0.146945 0.191449 0.845339 197 193 181
-0.144335 0.191584 0.844423 196 192 180
-0.141724 0.191646 0.843701 197 191 179
-0.139096 0.191424 0.843743 198 192 180
-0.136473 0.191332 0.843436 199 193 181
-0.133853 0.191301 0.842963 199 193 181
-0.131223 0.191171 0.842757 196 192 180
-0.128585 0.190969 0.842742 197 193 181
-0.125947 0.190819 0.842587 198 194 182
-0.123303 0.190630 0.842537 197 193 181
-0.120691 0.190730 0.841713 197 193 181
-0.118053 0.190621 0.841448 198 194 182
-0.115400 0.190426 0.841411 198 194 182
-0.112746 0.190245 0.841338 196 192 180
-0.110095 0.190106 0.841149 196 192 180
-0.107447 0.189996 0.840885 196 192 180
-0.104808 0.189949 0.840451 195 191 179
-0.102123 0.189669 0.840639 197 193 181
-0.099466 0.189550 0.840395 196 192 180
-0.096841 0.189599 0.839707 197 193 181
-0.094238 0.189749 0.838749 197 193 181
-0.091647 0.189936 0.837695 197 193 181
-0.089059 0.190123 0.836642 195 191 179
-0.086474 0.190310 0.835589 196 192 180
-0.083806 0.190156 0.835439 198 194 182
-0.081137 0.190011 0.835265 195 191 179
-0.078457 0.189832 0.835178 194 190 178
-0.075826 0.189842 0.834593 194 190 178
-0.073205 0.189886 0.833919 193 189 177
-0.070589 0.189944 0.833208 193 189 177
-0.067997 0.190076 0.832301 191 187 175
-0.065558 0.190687 0.830135 190 186 174
-0.063247 0.191657 0.827029 181 177 168
-0.061720 0.194919 0.817904 196 192 183
-0.059823 0.196931 0.812074 227 222 216
-0.057448 0.197484 0.810077 232 227 223
-0.054841 0.197368 0.809836 149 144 140
-0.052031 0.196712 0.811011 201 196 192
-0.049300 0.196294 0.811560 201 196 192
-0.046621 0.196032 0.811700 198 195 190
-0.043927 0.195742 0.811909 201 197 194
-0.041267 0.195548 0.811869 202 197 194
-0.038527 0.195173 0.812299 189 184 180
-0.035877 0.195025 0.812138 165 160 156
-0.033294 0.195039 0.811551 169 165 162
-0.030756 0.195151 0.810710 169 168 166
-0.028168 0.195151 0.810163 171 167 166
-0.025629 0.195258 0.809335 169 165 162
-0.023045 0.195264 0.808770 170 164 164
-0.020498 0.195346 0.808010 171 167 164
-0.017917 0.195358 0.807429 173 170 165
-0.015261 0.195217 0.807247 197 193 190
-0.012626 0.195125 0.806937 199 195 194
-0.010028 0.195108 0.806432 200 194 194
-0.007452 0.195132 0.805821 202 197 194
-0.004829 0.195069 0.805435 201 198 193
-0.002171 0.194943 0.805211 198 194 191
0.000468 0.194854 0.804890 196 192 189
0.003188 0.194627 0.804928 169 164 161
0.006024 0.194202 0.805472 173 169 166
0.008933 0.193667 0.806299 169 168 166
0.011731 0.193336 0.806599 170 169 167
0.014406 0.193220 0.806345 175 171 168
0.016973 0.193285 0.805623 179 174 170
0.019651 0.193171 0.805363 177 173 170
0.022371 0.192992 0.805271 208 204 201
0.025019 0.192932 0.804871 203 199 196
0.027667 0.192873 0.804468 198 194 191
0.030173 0.193034 0.803503 197 193 190
0.032664 0.193213 0.802492 188 184 181
0.035338 0.193114 0.802189 178 174 171
0.037907 0.193174 0.801483 172 168 165
0.040416 0.193320 0.800559 158 154 151
0.042807 0.193629 0.799218 156 152 149
0.045102 0.194067 0.797549 149 145 142
0.047681 0.194099 0.796916 145 141 138
0.050243 0.194152 0.796229 145 141 138
0.052932 0.194032 0.795984 150 146 143
0.055674 0.193843 0.795910 148 144 141
0.058304 0.193807 0.795449 160 156 153
0.061140 0.193503 0.795668 173 170 165
0.064084 0.193066 0.796223 180 177 172
0.066847 0.192871 0.796164 196 195 190
0.069506 0.192813 0.795757 204 203 198
0.072024 0.192932 0.794901 215 214 209
0.074796 0.192735 0.794845 224 223 218
0.077821 0.192232 0.795562 230 229 224
0.080641 0.191989 0.795619 232 231 226
0.083247 0.192007 0.795017 232 229 224
0.086107 0.191724 0.795174 234 231 226
0.088773 0.191676 0.794740 231 227 224
0.091333 0.191751 0.793994 228 224 221
0.093923 0.191790 0.793338 229 226 221
0.096543 0.191795 0.792771 225 225 217
0.099124 0.191843 0.792093 223 223 213
0.101653 0.191948 0.791272 221 223 212
0.104001 0.192252 0.789956 216 220 206
0.106258 0.192648 0.788408 217 219 208
0.108909 0.192611 0.787946 220 220 212
0.111767 0.192353 0.788035 225 222 217
0.114695 0.192026 0.788296 226 223 218
0.117671 0.191656 0.788664 226 223 218
0.120651 0.191288 0.789025 226 223 218
0.123679 0.190879 0.789488 222 222 214
0.126680 0.190503 0.789864 221 220 215
0.129317 0.190504 0.789303 225 224 219
0.131905 0.190553 0.788622 225 224 219
0.134557 0.190538 0.788100 222 221 216
0.137220 0.190512 0.787604 224 223 218
0.139829 0.190541 0.786973 223 220 215
0.142581 0.190430 0.786690 225 222 217
0.145256 0.190395 0.786216 223 220 215
0.148148 0.190155 0.786250 223 220 215
0.151033 0.189925 0.786258 223 220 215
0.153749 0.189858 0.785864 222 219 214
0.156573 0.189692 0.785715 222 219 214
0.159342 0.189578 0.785433 220 219 214
0.162032 0.189540 0.784966 220 219 214
0.164566 0.189642 0.784152 220 219 214
0.167387 0.189486 0.783976 220 219 214
0.170072 0.189454 0.783493 220 219 214
0.172740 0.189436 0.782975 220 219 214
0.175372 0.189451 0.782376 217 216 211
0.177821 0.189625 0.781388 219 216 211
0.180802 0.189338 0.781530 222 219 214
0.183780 0.189058 0.781654 218 215 210
0.186775 0.188768 0.781800 219 218 213
0.189909 0.188367 0.782219 218 217 212
0.193212 0.187830 0.782966 221 218 213
0.196912 0.186973 0.784494 220 217 212
0.200759 0.186008 0.786283 219 218 213
0.204052 0.185510 0.786929 219 218 214
0.294212 0.120025 0.944496 51 52 56
0.299601 0.118358 0.947851 51 52 57
0.302906 0.118354 0.947162 46 50 53
0.306145 0.118401 0.946348 48 52 55
0.309730 0.118179 0.946186 48 52 55
0.313513 0.117809 0.946382 49 50 54
0.315819 0.118572 0.943834 45 46 50
0.318146 0.119309 0.941353 47 48 52
0.321152 0.119525 0.940133 46 47 52
0.323518 0.120217 0.937765 32 33 38
0.324410 0.121994 0.932780 16 15 20
0.323288 0.125236 0.924271 16 15 20
0.323527 0.127436 0.918285 15 14 19
0.324506 0.129067 0.913675 16 15 20
0.325479 0.130682 0.909112 17 16 21
0.326926 0.131935 0.905425 15 14 19
0.328830 0.132844 0.902568 17 16 21
0.330279 0.134066 0.898965 18 17 22
0.332036 0.135053 0.895927 19 18 23
0.333555 0.136196 0.892523 18 17 22
0.336671 0.136212 0.891818 18 17 22
0.339923 0.136134 0.891338 19 18 23
0.342677 0.136399 0.890039 19 18 23
0.345961 0.136300 0.889611 19 18 23
0.348908 0.136430 0.888635 20 20 22
0.352973 0.135804 0.889461 20 20 22
0.355641 0.136123 0.888035 16 16 18
0.359779 0.135458 0.888950 23 23 25
0.364959 0.134111 0.891486 26 26 28
0.371160 0.132109 0.895573 17 17 19
0.377068 0.130322 0.899142 23 23 25
0.382626 0.128784 0.902113 29 29 31
0.388460 0.127086 0.905458 29 29 31
0.393323 0.126032 0.907271 38 38 40
0.397815 0.125228 0.908487 61 63 62
0.402015 0.124619 0.909240 65 67 66
0.406975 0.123537 0.911108 68 70 69
0.412176 0.122315 0.913300 70 72 71
0.416005 0.121965 0.913433 73 75 74
0.419040 0.122113 0.912391 70 72 71
0.419699 0.123726 0.907898 72 74 73
0.423856 0.123173 0.908510 71 73 72
0.427002 0.123243 0.907652 72 74 73
0.431155 0.122702 0.908233 74 76 75
0.435864 0.121830 0.909587 74 76 73
0.439354 0.121700 0.909196 73 75 72
0.442855 0.121566 0.908816 74 76 73
0.448800 0.119981 0.911832 75 77 74
0.450564 0.120884 0.909022 75 77 76
0.450424 0.122896 0.903624 76 78 77
0.450935 0.124506 0.899170 75 77 74
0.452325 0.125588 0.895957 74 76 73
0.456060 0.125302 0.895935 73 75 72
-0.311997 0.230160 0.782428 120 122 121
-0.310451 0.228969 0.785345 131 131 131
-0.308090 0.229094 0.784504 126 117 118
-0.306685 0.227611 0.788245 135 121 120
-0.304663 0.227138 0.789106 133 117 104
-0.302860 0.226269 0.791090 138 126 104
-0.300914 0.225625 0.792433 124 121 106
-0.298428 0.225929 0.791079 103 104 106
-0.296512 0.225203 0.792649 90 103 119
-0.294465 0.224694 0.793603 101 118 136
-0.292165 0.224646 0.793245 99 116 132
-0.289665 0.224982 0.791799 101 117 133
-0.287628 0.224421 0.792897 102 115 132
-0.285514 0.223995 0.793607 104 111 129
-0.283632 0.223083 0.795695 95 99 111
-0.281754 0.222127 0.797902 13 13 21
-0.279908 0.221065 0.800403 15 14 20
-0.278348 0.219349 0.804746 17 16 21
-0.277750 0.215455 0.815228 17 16 21
-0.282421 0.181369 0.909082 24 24 26
-0.280898 0.178451 0.916707 8 8 10
-0.278998 0.176340 0.922058 9 9 11
-0.276234 0.176328 0.921502 8 7 13
-0.273974 0.175004 0.924632 8 7 12
-0.270402 0.177119 0.918112 8 8 10
-0.267370 0.177860 0.915450 9 9 11
-0.264280 0.178803 0.912225 10 8 13
-0.259339 0.185130 0.893942 16 14 15
-0.254674 0.190980 0.877017 204 204 192
-0.251725 0.191934 0.873792 204 201 186
-0.248800 0.192870 0.870622 203 200 185
-0.246167 0.192916 0.869936 201 198 183
-0.243578 0.192822 0.869645 200 197 182
-0.241056 0.192490 0.870014 200 197 182
-0.238437 0.192478 0.869492 199 196 181
-0.235844 0.192374 0.869226 198 195 180
-0.233260 0.192224 0.869085 197 194 179
-0.230740 0.191813 0.869673 197 194 179
-0.228128 0.191746 0.869300 198 195 180
-0.225481 0.191820 0.868538 197 194 179
-0.222809 0.192008 0.867459 197 194 179
-0.220166 0.192081 0.866700 196 193 178
-0.217510 0.192221 0.865754 199 193 179
-0.214848 0.192401 0.864700 198 192 178
-0.212095 0.193072 0.862290 198 192 178
-0.209482 0.193046 0.861806 195 192 177
-0.206876 0.192978 0.861439 195 192 177
-0.204258 0.192966 0.860917 196 193 178
-0.201632 0.193008 0.860244 195 192 177
-0.199022 0.192952 0.859845 197 191 177
-0.196397 0.192990 0.859185 199 193 179
-0.193853 0.192399 0.860256 198 192 178
-0.191233 0.192355 0.859819 197 191 177
-0.188585 0.192554 0.858715 197 191 177
-0.185937 0.192799 0.857487 198 192 178
-0.183296 0.193004 0.856369 197 191 177
-0.180672 0.193056 0.855670 197 191 177
-0.178053 0.193046 0.855143 197 191 177
-0.175427 0.193144 0.854318 199 193 179
-0.172810 0.193097 0.853894 199 193 179
-0.170189 0.193128 0.853253 198 192 178
-0.167569 0.193157 0.852618 196 190 178
-0.164951 0.193080 0.852273 196 192 180
-0.162328 0.193273 0.851192 195 191 179
-0.159707 0.193489 0.850046 195 191 179
-0.157090 0.193692 0.848940 196 192 180
-0.154476 0.193752 0.848222 196 192 180
-0.151861 0.193726 0.847736 195 191 179
-0.149247 0.193769 0.847067 197 191 179
-0.146629 0.193672 0.846775 196 192 180
-0.144019 0.193801 0.845871 196 192 180
-0.141409 0.193886 0.845085 197 191 179
-0.138781 0.193667 0.845125 199 193 181
-0.136158 0.193568 0.844839 199 193 181
-0.133542 0.193585 0.844239 199 193 181
-0.130918 0.193508 0.843892 197 193 181
-0.128282 0.193325 0.843832 197 193 181
-0.125651 0.193224 0.843548 197 193 181
-0.123019 0.193123 0.843265 197 193 181
-0.120413 0.193250 0.842366 197 193 181
-0.117774 0.193115 0.842176 198 194 182
-0.115132 0.192979 0.841985 198 194 182
-0.112491 0.192869 0.841726 196 192 180
-0.109835 0.192674 0.841694 197 193 181
-0.107184 0.192538 0.841501 196 192 180
-0.104560 0.192558 0.840890 196 192 180
-0.101883 0.192303 0.841019 197 193 181
-0.099219 0.192133 0.840916 196 192 180
-0.096602 0.192202 0.840175 196 192 180
-0.094015 0.192408 0.839065 195 191 179
-0.091414 0.192532 0.838175 196 192 180
-0.088821 0.192684 0.837211 196 192 180
-0.086253 0.192922 0.836017 196 192 180
-0.083577 0.192725 0.835989 196 192 180
-0.080890 0.192499 0.836034 195 191 179
-0.078222 0.192358 0.835853 197 193 181
-0.075592 0.192364 0.835280 195 191 179
-0.072958 0.192351 0.834754 194 190 178
-0.070346 0.192417 0.834022 194 190 178
-0.067776 0.192613 0.832943 191 187 175
-0.065371 0.193313 0.830526 189 185 173
-0.063075 0.194305 0.827337 181 177 168
-0.061458 0.197255 0.818958 207 203 194
-0.059558 0.199231 0.813172 227 222 216
-0.057117 0.199591 0.811673 236 231 227
-0.054478 0.199390 0.811660 153 148 144
-0.051641 0.198671 0.813017 204 199 195
-0.048930 0.198317 0.813407 208 203 199
-0.046299 0.198181 0.813220 201 198 193
-0.043651 0.198010 0.813126 204 200 199
-0.040979 0.197790 0.813159 206 201 198
-0.038316 0.197598 0.813116 169 164 160
-0.035641 0.197390 0.813117 174 171 166
-0.033000 0.197265 0.812896 173 172 168
-0.030431 0.197308 0.812235 161 161 159
-0.027840 0.197301 0.811705 155 155 153
-0.025268 0.197336 0.811065 164 165 160
-0.022665 0.197304 0.810600 178 174 173
-0.020104 0.197361 0.809900 171 167 164
-0.017492 0.197313 0.809478 174 171 166
-0.014814 0.197135 0.809396 207 204 199
-0.012195 0.197077 0.808997 202 198 195
-0.009609 0.197088 0.808421 204 200 199
-0.007005 0.197063 0.807935 204 200 197
-0.004376 0.196993 0.807570 205 202 197
-0.001705 0.196849 0.807396 203 199 198
0.000964 0.196714 0.807198 179 173 173
0.003718 0.196433 0.807378 176 172 169
0.006549 0.196028 0.807883 174 170 169
0.009404 0.195595 0.808456 169 168 166
0.012225 0.195232 0.808848 171 171 169
0.014929 0.195075 0.808701 172 171 167
0.017466 0.195194 0.807840 173 170 163
0.020133 0.195103 0.807524 174 171 166
0.022915 0.194831 0.807675 177 173 170
0.025600 0.194718 0.807413 197 193 190
0.028252 0.194660 0.807008 197 193 190
0.030812 0.194743 0.806238 201 197 194
0.033304 0.194927 0.805210 199 195 192
0.035928 0.194910 0.804699 199 195 192
0.038473 0.195009 0.803890 199 195 192
0.040964 0.195183 0.802888 199 195 192
0.043339 0.195518 0.801473 198 194 191
0.045634 0.195955 0.799794 197 193 190
0.048215 0.195987 0.799159 196 192 189
0.050868 0.195920 0.798780 198 194 191
0.053621 0.195720 0.798743 204 200 197
0.056312 0.195607 0.798480 166 162 159
0.058977 0.195531 0.798121 176 172 169
0.061827 0.195218 0.798371 178 177 172
0.064685 0.194900 0.798630 177 176 171
0.067384 0.194792 0.798351 168 164 161
0.070048 0.194732 0.797951 165 161 160
0.072484 0.194955 0.796827 157 153 152
0.075227 0.194797 0.796676 156 152 149
0.078276 0.194272 0.797461 155 154 149
0.081028 0.194114 0.797306 151 151 143
0.083653 0.194111 0.796757 146 145 140
0.086598 0.193733 0.797165 145 144 140
0.089327 0.193613 0.796913 145 141 138
0.091848 0.193735 0.796044 144 140 137
0.094371 0.193852 0.795191 146 142 139
0.096931 0.193926 0.794446 147 144 139
0.099416 0.194083 0.793494 147 147 139
0.101942 0.194190 0.792666 154 154 146
0.104278 0.194503 0.791318 166 167 159
0.106578 0.194850 0.789886 174 174 166
0.109220 0.194822 0.789401 191 188 183
0.112031 0.194617 0.789365 204 201 196
0.115068 0.194178 0.789917 215 212 207
0.118082 0.193772 0.790383 220 217 212
0.121053 0.193417 0.790719 225 224 219
0.124109 0.192984 0.791253 231 231 223
0.127055 0.192668 0.791487 229 230 224
0.129638 0.192724 0.790789 232 233 228
0.132281 0.192717 0.790245 230 229 224
0.134963 0.192674 0.789794 228 225 220
0.137693 0.192585 0.789460 228 225 220
0.140377 0.192541 0.789009 227 224 219
0.143116 0.192446 0.788689 222 221 217
0.145740 0.192462 0.788089 219 218 214
0.148604 0.192251 0.788055 221 218 213
0.151439 0.192072 0.787943 222 219 214
0.154081 0.192074 0.787378 221 218 213
0.156841 0.191968 0.787080 221 218 213
0.159528 0.191931 0.786613 220 219 214
0.162286 0.191829 0.786304 220 219 214
0.164854 0.191900 0.785566 219 218 213
0.167656 0.191762 0.785349 220 219 214
0.170355 0.191717 0.784899 221 220 215
0.173007 0.191714 0.784345 218 217 212
0.175705 0.191671 0.783889 220 217 212
0.178117 0.191875 0.782823 219 216 211
0.180997 0.191677 0.782753 221 218 213
0.183896 0.191465 0.782714 223 220 215
0.186707 0.191332 0.782481 218 215 210
0.189890 0.190890 0.783010 221 218 213
0.193136 0.190403 0.783650 220 217 212
0.196756 0.189617 0.785024 219 216 211
0.200438 0.188791 0.786492 219 218 213
0.203528 0.188457 0.786747 220 219 214
0.292014 0.124842 0.941298 50 51 55
0.297590 0.123029 0.945057 44 47 52
0.300353 0.123432 0.943371 42 46 49
0.304478 0.122778 0.944280 43 47 50
0.307669 0.122849 0.943409 44 48 51
0.310688 0.123052 0.942216 45 46 50
0.313405 0.123480 0.940473 44 45 49
0.315753 0.124181 0.938068 44 45 49
0.318208 0.124792 0.935883 34 35 40
0.319693 0.126114 0.931966 16 15 21
0.319993 0.128292 0.925968 16 15 20
0.319186 0.131252 0.918076 16 15 20
0.319588 0.133293 0.912431 16 15 20
0.320191 0.135161 0.907212 17 16 21
0.321958 0.136170 0.904090 15 14 19
0.323293 0.137473 0.900257 17 16 21
0.325086 0.138435 0.897255 16 15 20
0.326513 0.139642 0.893663 18 17 22
0.328319 0.140569 0.890755 17 16 21
0.329752 0.141744 0.887252 19 18 23
0.332611 0.141919 0.886169 19 18 23
0.335488 0.142080 0.885121 20 19 24
0.338120 0.142405 0.883676 24 23 28
0.341192 0.142429 0.882961 21 20 25
0.344452 0.142325 0.882551 19 19 21
0.347943 0.142069 0.882508 21 21 23
0.351842 0.141545 0.883111 26 26 28
0.356037 0.140831 0.884165 23 23 25
0.359983 0.140290 0.884803 19 19 21
0.364522 0.139368 0.886352 27 27 29
0.369157 0.138395 0.888020 21 21 23
0.373598 0.137559 0.889357 23 23 25
0.378100 0.136694 0.890760 28 28 30
0.381177 0.136747 0.889961 27 27 29
0.385238 0.136177 0.890655 28 28 28
0.389942 0.135207 0.892300 34 34 34
0.395368 0.133797 0.894992 36 36 36
0.401244 0.132123 0.898307 66 68 67
0.408196 0.129800 0.903160 71 73 72
0.414229 0.128071 0.906591 71 73 72
0.416636 0.128582 0.904688 69 71 70
0.421793 0.127413 0.906782 72 74 73
0.426307 0.126646 0.907913 72 74 73
0.430519 0.126069 0.908591 73 75 74
0.436029 0.124722 0.911093 74 76 73
0.439687 0.124493 0.910942 75 77 74
0.443146 0.124384 0.910506 74 76 73
0.449840 0.122371 0.914572 76 78 75
0.451241 0.123481 0.911250 75 77 76
0.451617 0.125176 0.906551 74 76 75
0.452330 0.126658 0.902362 74 76 73
0.455735 0.126573 0.901874 74 76 71
0.457926 0.127184 0.899743 73 75 70
-0.313049 0.229957 0.789843 139 128 124
-0.311591 0.228598 0.793274 138 127 123
-0.309130 0.228853 0.792051 135 121 118
-0.307688 0.227407 0.795723 139 121 117
-0.305648 0.226934 0.796591 142 125 115
-0.303754 0.226194 0.798225 116 104 88
-0.301711 0.225691 0.799177 85 83 71
-0.299226 0.225960 0.797908 69 72 77
-0.297160 0.225478 0.798796 61 73 89
-0.294976 0.225198 0.799104 100 116 132
-0.292862 0.224775 0.799821 100 117 133
-0.290376 0.225050 0.798538 101 119 133
-0.288263 0.224607 0.799309 101 117 132
-0.286152 0.224144 0.800134 107 121 132
-0.284226 0.223292 0.802070 101 112 118
-0.282278 0.222451 0.803971 43 53 55
-0.280350 0.221536 0.806080 15 16 21
-0.278418 0.220594 0.808261 10 9 15
-0.277149 0.218168 0.814666 16 15 20
-0.279112 0.184296 0.908263 10 9 14
-0.277524 0.181502 0.915612 10 10 12
-0.275183 0.180486 0.917912 9 8 14
-0.272978 0.179068 0.921345 8 7 12
-0.269681 0.180484 0.916752 8 8 10
-0.266856 0.180684 0.915602 8 7 12
-0.264016 0.180935 0.914311 10 9 15
-0.259652 0.185571 0.900631 1 0 0
-0.254239 0.193550 0.877535 208 208 198
-0.251241 0.194660 0.873846 205 202 187
-0.248313 0.195614 0.870601 203 200 185
-0.245714 0.195567 0.870178 202 199 184
-0.243155 0.195387 0.870132 201 198 183
-0.240642 0.195036 0.870565 199 196 181
-0.238028 0.195020 0.870056 198 195 180
-0.235434 0.194928 0.869758 197 194 179
-0.232859 0.194757 0.869682 197 194 179
-0.230305 0.194493 0.869866 197 194 179
-0.227702 0.194407 0.869553 198 195 180
-0.225066 0.194451 0.868872 196 193 178
-0.222393 0.194658 0.867736 197 194 179
-0.219757 0.194719 0.867010 194 191 176
-0.217112 0.194820 0.866170 199 193 179
-0.214455 0.194995 0.865128 197 191 177
-0.211699 0.195700 0.862604 199 193 179
-0.209093 0.195657 0.862169 195 192 177
-0.206502 0.195519 0.861999 196 193 178
-0.203888 0.195506 0.861483 196 193 178
-0.201269 0.195524 0.860876 195 192 177
-0.198664 0.195445 0.860543 195 192 177
-0.196044 0.195467 0.859928 197 191 177
-0.193500 0.194894 0.860963 197 191 177
-0.190884 0.194836 0.860569 197 191 177
-0.188240 0.195024 0.859493 198 192 178
-0.185594 0.195276 0.858237 198 192 178
-0.182959 0.195448 0.857205 197 191 177
-0.180340 0.195453 0.856638 197 191 177
-0.177723 0.195447 0.856099 198 192 178
-0.175094 0.195606 0.855103 199 193 179
-0.172478 0.195600 0.854565 198 192 178
-0.169858 0.195661 0.853843 198 192 178
-0.167239 0.195732 0.853092 197 191 177
-0.164624 0.195686 0.852665 197 193 181
-0.162004 0.195861 0.851629 195 191 179
-0.159388 0.196069 0.850501 195 191 179
-0.156775 0.196337 0.849210 194 190 178
-0.154164 0.196409 0.848459 195 191 179
-0.151554 0.196404 0.847920 195 191 179
-0.148947 0.196522 0.847041 199 193 181
-0.146333 0.196423 0.846761 196 192 180
-0.143726 0.196501 0.845994 196 192 180
-0.141121 0.196588 0.845203 196 192 180
-0.138502 0.196437 0.845062 198 192 180
-0.135886 0.196375 0.844678 199 193 181
-0.133278 0.196419 0.844005 196 192 180
-0.130663 0.196380 0.843558 196 192 180
-0.128033 0.196196 0.843508 197 193 181
-0.125398 0.196012 0.843456 197 193 181
-0.122763 0.195844 0.843358 196 192 180
-0.120170 0.196034 0.842286 198 194 182
-0.117539 0.195922 0.842037 197 193 181
-0.114893 0.195721 0.842029 197 193 181
-0.112255 0.195602 0.841797 197 193 181
-0.109607 0.195432 0.841704 197 193 181
-0.106952 0.195244 0.841660 196 192 180
-0.104317 0.195182 0.841271 196 192 180
-0.101660 0.195013 0.841173 197 193 181
-0.099008 0.194882 0.840970 196 192 180
-0.096387 0.194909 0.840342 197 193 181
-0.093810 0.195134 0.839176 197 193 181
-0.091215 0.195265 0.838264 197 193 181
-0.088622 0.195394 0.837360 196 192 180
-0.086054 0.195614 0.836211 196 192 180
-0.083382 0.195419 0.836182 196 192 180
-0.080705 0.195214 0.836178 196 192 180
-0.078048 0.195101 0.835925 196 192 180
-0.075429 0.195124 0.835307 195 191 179
-0.072806 0.195134 0.834725 196 192 180
-0.070181 0.195139 0.834155 194 190 178
-0.067588 0.195245 0.833313 191 187 175
-0.065175 0.195900 0.831000 189 185 173
-0.062887 0.196896 0.827774 176 172 163
-0.061402 0.200187 0.818407 219 215 206
-0.059481 0.202064 0.812836 230 225 219
-0.056985 0.202251 0.811792 237 232 228
-0.054304 0.201926 0.812118 163 158 154
-0.051428 0.201104 0.813771 207 202 198
-0.048744 0.200817 0.813992 205 200 196
-0.046149 0.200765 0.813585 202 199 194
-0.043458 0.200481 0.813794 207 203 202
-0.040824 0.200347 0.813605 195 191 188
-0.038164 0.200158 0.813561 177 174 169
-0.035510 0.199991 0.813459 172 171 167
-0.032897 0.199923 0.813092 142 144 141
-0.030326 0.199952 0.812467 130 136 136
-0.027745 0.199957 0.811906 135 141 141
-0.025127 0.199885 0.811549 133 137 138
-0.022518 0.199834 0.811136 140 140 140
-0.019969 0.199908 0.810394 180 176 173
-0.017346 0.199830 0.810050 182 177 173
-0.014666 0.199644 0.809994 192 187 183
-0.012101 0.199688 0.809332 207 203 200
-0.009553 0.199762 0.808587 207 203 202
-0.006930 0.199693 0.808220 207 203 200
-0.004306 0.199626 0.807850 206 202 199
-0.001633 0.199473 0.807703 203 199 196
0.001057 0.199294 0.807626 178 174 171
0.003836 0.198966 0.807939 177 173 172
0.006656 0.198579 0.808407 170 168 169
0.009511 0.198144 0.808998 150 152 151
0.012416 0.197639 0.809771 143 144 146
0.015168 0.197402 0.809841 154 154 152
0.017711 0.197509 0.809005 173 172 167
0.020431 0.197332 0.808917 173 172 168
0.023258 0.196992 0.809253 171 167 164
0.025913 0.196927 0.808870 205 201 198
0.028543 0.196904 0.808375 205 201 198
0.031144 0.196924 0.807770 201 197 194
0.033632 0.197112 0.806725 200 196 193
0.036190 0.197192 0.805962 202 198 195
0.038713 0.197321 0.805072 202 198 195
0.041194 0.197507 0.804036 201 197 194
0.043493 0.197943 0.802349 201 197 194
0.045751 0.198426 0.800543 201 197 194
0.048429 0.198321 0.800264 200 196 193
0.051104 0.198223 0.799965 203 199 196
0.053843 0.198041 0.799885 204 200 197
0.056569 0.197882 0.799746 167 163 160
0.059317 0.197698 0.799668 177 173 170
0.062148 0.197411 0.799858 181 180 175
0.065015 0.197087 0.800143 165 164 160
0.067855 0.196802 0.800323 161 157 154
0.070631 0.196606 0.800276 168 163 160
0.073132 0.196750 0.799348 179 174 171
0.075801 0.196689 0.798950 178 173 170
0.078773 0.196264 0.799491 161 158 153
0.081446 0.196204 0.799089 160 160 152
0.084026 0.196256 0.798401 178 177 173
0.086977 0.195874 0.798824 175 174 170
0.089681 0.195785 0.798496 182 178 175
0.092159 0.195956 0.797500 182 178 175
0.094677 0.196078 0.796631 197 193 190
0.097072 0.196335 0.795416 201 197 194
0.099485 0.196567 0.794267 199 196 191
0.102025 0.196657 0.793483 200 197 192
0.104351 0.196975 0.792114 201 198 193
0.106627 0.197341 0.790625 202 199 194
0.109276 0.197304 0.790164 202 199 194
0.112072 0.197113 0.790097 202 199 194
0.115085 0.196701 0.790593 200 197 192
0.118044 0.196353 0.790924 195 192 187
0.120913 0.196101 0.791007 187 186 181
0.124066 0.195569 0.791802 180 180 172
0.127045 0.195221 0.792130 171 172 167
0.129501 0.195398 0.791120 141 142 137
0.132144 0.195389 0.790586 137 136 131
0.134849 0.195319 0.790206 139 136 129
0.137569 0.195236 0.789858 136 133 126
0.140267 0.195176 0.789450 141 138 131
0.143052 0.195034 0.789250 145 142 137
0.145721 0.195004 0.788768 154 153 149
0.148589 0.194790 0.788750 165 162 157
0.151455 0.194580 0.788719 171 168 163
0.154131 0.194549 0.788238 180 177 172
0.156859 0.194471 0.787874 190 187 182
0.159387 0.194574 0.787053 201 200 195
0.162258 0.194370 0.787007 207 206 201
0.164904 0.194368 0.786451 216 215 210
0.167650 0.194279 0.786115 224 223 218
0.170417 0.194173 0.785820 227 226 221
0.173048 0.194186 0.785226 229 228 223
0.175689 0.194192 0.784652 226 225 220
0.177916 0.194549 0.783197 226 222 219
0.180723 0.194411 0.782982 219 216 211
0.183690 0.194140 0.783098 220 217 212
0.186524 0.193985 0.782924 222 219 214
0.189566 0.193660 0.783172 220 217 212
0.192662 0.193297 0.783516 220 217 212
0.196130 0.192635 0.784600 221 218 213
0.199742 0.191869 0.785945 221 218 213
0.203010 0.191389 0.786572 220 219 214
0.296076 0.127279 0.943212 37 42 46
0.298646 0.127818 0.941184 36 39 44
0.303626 0.126502 0.943750 36 37 41
0.306519 0.126793 0.942336 37 38 42
0.309198 0.127242 0.940531 39 40 44
0.311398 0.128046 0.937854 40 41 45
0.313334 0.129035 0.934723 38 37 42
0.314930 0.130263 0.931008 19 18 24
0.315476 0.132246 0.925436 19 18 24
0.315753 0.134400 0.919452 18 17 23
0.315977 0.136563 0.913454 17 16 21
0.317104 0.138046 0.909135 16 15 20
0.317960 0.139704 0.904393 18 17 22
0.319899 0.140569 0.901602 17 16 21
0.321531 0.141640 0.898310 18 17 22
0.323418 0.142518 0.895495 18 17 22
0.324729 0.143787 0.891725 18 17 22
0.326423 0.144774 0.888651 19 18 23
0.327893 0.145903 0.885235 16 15 20
0.330574 0.146188 0.883881 21 20 25
0.333266 0.146463 0.882554 24 23 28
0.335982 0.146718 0.881277 18 17 22
0.338943 0.146806 0.880409 19 18 23
0.342056 0.146791 0.879789 21 21 23
0.345992 0.146230 0.880498 22 22 24
0.348761 0.146446 0.879318 17 17 19
0.353004 0.145693 0.880490 19 19 21
0.356819 0.145229 0.880959 28 28 30
0.361243 0.144375 0.882370 24 24 26
0.365178 0.143847 0.882989 25 25 27
0.369076 0.143349 0.883533 22 22 24
0.372339 0.143260 0.883086 29 29 31
0.375230 0.143408 0.882067 22 22 24
0.378271 0.143460 0.881279 20 20 22
0.381635 0.143309 0.880980 37 37 39
0.385520 0.142837 0.881455 27 27 27
0.389708 0.142183 0.882366 23 23 23
0.395158 0.140762 0.885122 31 33 32
0.402746 0.138050 0.890973 53 55 54
0.411087 0.134912 0.897838 71 73 72
0.419865 0.131546 0.905237 68 72 71
0.426619 0.129433 0.909620 72 74 73
0.430988 0.128767 0.910524 71 73 72
0.435291 0.128149 0.911315 72 74 73
0.439241 0.127745 0.911587 73 75 72
0.443404 0.127221 0.912147 74 76 73
0.450411 0.125041 0.916659 74 76 75
0.452355 0.125827 0.914086 74 76 75
0.453503 0.127064 0.910438 74 76 75
0.455220 0.127962 0.907604 74 76 73
0.458306 0.128067 0.906662 73 75 72
0.459067 0.129494 0.902576 74 76 71
-0.313956 0.230011 0.796629 154 142 142
-0.312702 0.228303 0.801109 135 126 129
-0.310139 0.228690 0.799491 113 112 120
-0.308771 0.227097 0.803626 89 93 102
-0.306708 0.226629 0.804488 85 92 102
-0.304852 0.225791 0.806423 95 104 113
-0.302694 0.225454 0.806902 108 117 126
-0.300058 0.225955 0.804953 107 116 123
-0.297947 0.225524 0.805702 106 116 126
-0.295623 0.225469 0.805362 106 118 132
-0.293547 0.224949 0.806368 96 112 125
-0.291063 0.225185 0.805184 104 120 133
-0.288915 0.224781 0.805853 106 120 131
-0.286723 0.224447 0.806316 105 118 126
-0.284744 0.223674 0.808044 108 122 125
-0.282802 0.222795 0.810075 110 124 125
-0.280706 0.222203 0.811275 12 15 20
-0.278627 0.221552 0.812643 12 13 18
-0.276932 0.220041 0.816482 12 11 16
-0.276212 0.216311 0.826691 10 9 14
-0.275762 0.187346 0.907061 10 10 12
-0.273939 0.185110 0.912885 9 8 14
-0.271683 0.183886 0.915807 9 8 13
-0.268926 0.183925 0.915114 8 8 10
-0.266440 0.183235 0.916505 9 8 13
-0.263685 0.183256 0.915864 11 10 16
-0.259424 0.187577 0.902956 3 1 4
-0.253906 0.195818 0.878894 195 195 187
-0.250704 0.197540 0.873432 205 201 189
-0.247796 0.198445 0.870304 204 201 186
-0.245200 0.198408 0.869856 202 199 184
-0.242698 0.198059 0.870295 201 198 183
-0.240226 0.197587 0.871081 199 196 181
-0.237599 0.197627 0.870413 199 196 181
-0.234980 0.197638 0.869829 197 194 179
-0.232404 0.197492 0.869689 197 194 179
-0.229841 0.197279 0.869737 195 192 177
-0.227238 0.197215 0.869364 197 194 179
-0.224614 0.197231 0.868764 195 192 177
-0.221949 0.197430 0.867645 197 194 179
-0.219313 0.197511 0.866862 195 192 177
-0.216657 0.197691 0.865799 199 193 179
-0.214015 0.197818 0.864888 199 193 179
-0.211279 0.198449 0.862553 197 191 177
-0.208676 0.198414 0.862100 195 192 177
-0.206102 0.198211 0.862119 195 192 177
-0.203503 0.198133 0.861784 195 192 177
-0.200892 0.198124 0.861255 195 192 177
-0.198285 0.198085 0.860812 195 192 177
-0.195673 0.198076 0.860286 194 191 176
-0.193138 0.197462 0.861452 196 193 178
-0.190529 0.197370 0.861154 196 190 176
-0.187896 0.197485 0.860278 196 190 176
-0.185256 0.197692 0.859143 198 192 178
-0.182623 0.197868 0.858096 198 192 178
-0.180000 0.197954 0.857301 197 191 177
-0.177381 0.198004 0.856609 198 192 178
-0.174758 0.198133 0.855695 198 192 178
-0.172141 0.198183 0.855003 199 193 179
-0.169524 0.198266 0.854216 198 192 178
-0.166909 0.198343 0.853449 196 190 176
-0.164296 0.198331 0.852927 194 191 176
-0.161680 0.198583 0.851675 196 193 178
-0.159068 0.198812 0.850484 194 190 178
-0.156460 0.199046 0.849280 196 192 180
-0.153855 0.199146 0.848451 196 192 180
-0.151249 0.199128 0.847949 196 192 180
-0.148646 0.199238 0.847094 198 192 180
-0.146038 0.199154 0.846774 196 192 180
-0.143438 0.199281 0.845869 195 191 179
-0.140841 0.199417 0.844942 196 192 180
-0.138229 0.199279 0.844772 197 193 181
-0.135623 0.199265 0.844258 197 193 181
-0.133025 0.199352 0.843467 196 192 180
-0.130416 0.199311 0.843027 196 192 180
-0.127795 0.199153 0.842912 197 193 181
-0.125169 0.198987 0.842816 197 193 181
-0.122538 0.198805 0.842763 195 191 179
-0.119946 0.198940 0.841839 197 193 181
-0.117323 0.198839 0.841564 197 193 181
-0.114678 0.198607 0.841649 197 193 181
-0.112039 0.198445 0.841539 195 191 179
-0.109401 0.198304 0.841373 196 192 180
-0.106761 0.198164 0.841202 198 194 182
-0.104122 0.198047 0.840969 197 193 181
-0.101467 0.197857 0.840934 196 192 180
-0.098823 0.197745 0.840685 195 191 179
-0.096200 0.197732 0.840164 196 192 180
-0.093613 0.197888 0.839182 197 193 181
-0.091022 0.198013 0.838288 195 191 179
-0.088440 0.198165 0.837318 195 191 179
-0.085871 0.198358 0.836238 196 192 180
-0.083197 0.198137 0.836285 198 194 182
-0.080529 0.197952 0.836233 195 191 179
-0.077881 0.197852 0.835950 195 191 179
-0.075248 0.197812 0.835502 196 192 180
-0.072623 0.197800 0.834981 193 189 177
-0.070012 0.197836 0.834328 193 189 177
-0.067439 0.197989 0.833356 191 187 175
-0.065006 0.198562 0.831249 188 184 172
-0.062695 0.199467 0.828248 173 169 160
-0.061299 0.202970 0.818220 225 221 212
-0.059374 0.204799 0.812732 227 222 216
-0.056815 0.204796 0.812196 240 235 231
-0.054101 0.204377 0.812785 176 171 167
-0.051232 0.203574 0.814409 208 203 199
-0.048598 0.203410 0.814305 208 203 199
-0.046010 0.203369 0.813873 204 201 196
-0.043347 0.203144 0.813932 208 204 201
-0.040720 0.203018 0.813726 180 176 173
-0.038044 0.202782 0.813814 175 174 170
-0.035421 0.202679 0.813544 147 147 145
-0.032821 0.202632 0.813126 131 136 139
-0.030229 0.202602 0.812658 137 146 151
-0.027626 0.202551 0.812248 139 148 157
-0.024994 0.202443 0.811992 138 147 156
-0.022399 0.202413 0.811524 136 137 141
-0.019857 0.202495 0.810760 147 146 144
-0.017225 0.202391 0.810489 184 179 175
-0.014554 0.202219 0.810402 180 175 171
-0.011987 0.202251 0.809768 210 207 202
-0.009421 0.202284 0.809134 207 206 202
-0.006774 0.202165 0.808903 206 205 201
-0.004134 0.202065 0.808623 206 202 199
-0.001442 0.201874 0.808581 195 192 187
0.001236 0.201716 0.808454 179 178 174
0.003949 0.201501 0.808476 172 171 169
0.006784 0.201087 0.809026 142 143 145
0.009693 0.200562 0.809869 133 138 142
0.012607 0.200044 0.810689 140 145 149
0.015383 0.199766 0.810873 136 141 144
0.017948 0.199834 0.810140 139 140 142
0.020684 0.199632 0.810123 177 176 174
0.023477 0.199347 0.810323 176 175 171
0.026113 0.199310 0.809868 192 188 185
0.028742 0.199285 0.809380 204 200 197
0.031326 0.199328 0.808712 206 202 199
0.033784 0.199556 0.807558 204 200 197
0.036266 0.199743 0.806514 205 201 198
0.038713 0.199975 0.805351 204 200 197
0.041104 0.200279 0.803999 206 202 199
0.043357 0.200768 0.802163 204 200 197
0.045663 0.201172 0.800552 204 200 197
0.048324 0.201085 0.800231 204 200 197
0.051005 0.200973 0.799974 203 199 196
0.053844 0.200655 0.800257 210 209 205
0.056672 0.200358 0.800482 170 169 165
0.059413 0.200182 0.800390 179 178 174
0.062230 0.199912 0.800543 178 174 171
0.065138 0.199535 0.800975 171 167 164
0.068019 0.199199 0.801297 172 169 164
0.070889 0.198886 0.801559 185 180 176
0.073423 0.198989 0.800735 185 180 176
0.076130 0.198881 0.800462 188 183 177
0.079024 0.198554 0.800758 184 181 176
0.081693 0.198499 0.800345 164 161 156
0.084406 0.198393 0.800065 165 164 160
0.087273 0.198113 0.800234 177 176 172
0.089951 0.198054 0.799831 184 180 177
0.092432 0.198219 0.798846 180 176 173
0.094910 0.198385 0.797860 201 197 194
0.097188 0.198769 0.796313 201 197 194
0.099612 0.198984 0.795201 201 198 193
0.102213 0.199004 0.794595 200 197 192
0.104553 0.199303 0.793268 201 196 192
0.106944 0.199543 0.792096 200 195 191
0.109671 0.199424 0.791848 199 196 191
0.112466 0.199237 0.791773 200 197 192
0.115393 0.198918 0.792041 199 196 191
0.118247 0.198679 0.792099 198 197 192
0.120956 0.198593 0.791766 199 198 193
0.124100 0.198071 0.792549 204 203 198
0.127207 0.197596 0.793209 169 168 163
0.129714 0.197720 0.792334 168 167 162
0.132414 0.197655 0.791944 171 168 163
0.135034 0.197667 0.791354 170 167 160
0.137651 0.197682 0.790758 170 167 160
0.140363 0.197607 0.790391 170 165 159
0.143191 0.197425 0.790298 171 168 161
0.146005 0.197259 0.790163 186 183 176
0.148957 0.196968 0.790346 200 197 192
