-0.106391 0.267824 0.848934 210 203 187
-0.103625 0.267999 0.848770 211 203 190
-0.100829 0.268037 0.848789 211 203 190
-0.097992 0.267895 0.849046 211 203 190
-0.095290 0.268416 0.848423 211 203 190
-0.092666 0.269282 0.847342 211 203 190
-0.089998 0.269925 0.846557 212 204 191
-0.087376 0.270759 0.845518 212 205 189
-0.084667 0.271200 0.845001 213 203 191
-0.081977 0.271718 0.844382 212 205 189
-0.079324 0.272379 0.843573 212 205 189
-0.076585 0.272686 0.843233 211 206 187
-0.073856 0.273036 0.842837 211 205 189
-0.070900 0.272530 0.843580 210 207 192
-0.068148 0.272816 0.843269 201 197 188
-0.065754 0.274395 0.841239 158 153 147
-0.064254 0.279083 0.835073 221 214 206
-0.062247 0.281838 0.831476 229 222 214
-0.059514 0.282039 0.831278 221 214 206
-0.056659 0.281844 0.831606 191 184 176
-0.053548 0.280832 0.833021 209 202 194
-0.050554 0.280249 0.833866 207 200 192
-0.047748 0.280291 0.833880 209 202 194
-0.044834 0.280012 0.834321 206 199 191
-0.041997 0.279988 0.834422 202 195 187
-0.039096 0.279789 0.834757 193 186 178
-0.036071 0.279248 0.835547 152 145 137
-0.033056 0.278766 0.836258 137 130 122
-0.030108 0.278504 0.836678 139 132 124
-0.027145 0.278219 0.837128 146 139 131
-0.024299 0.278277 0.837122 170 163 155
-0.021568 0.278653 0.836691 192 185 177
-0.018864 0.279101 0.836164 219 212 204
-0.016261 0.279810 0.835290 234 227 219
-0.013575 0.280295 0.834715 239 232 224
-0.010869 0.280728 0.834208 243 236 228
-0.007833 0.280337 0.834801 239 232 224
-0.004947 0.280337 0.834872 238 231 223
-0.002148 0.280558 0.834648 234 227 219
0.000640 0.280809 0.834384 235 228 220
0.003396 0.281139 0.834016 228 223 217
0.006304 0.281120 0.834112 235 226 219
0.009223 0.281087 0.834228 233 223 214
0.012187 0.280962 0.834465 229 225 216
0.014928 0.281347 0.834024 228 228 220
0.017756 0.281541 0.833837 233 230 225
0.020602 0.281701 0.833696 233 226 220
0.023374 0.282022 0.833338 233 224 217
0.025939 0.282782 0.832395 235 228 218
0.028405 0.283739 0.831191 233 226 216
0.031022 0.284369 0.830421 233 226 216
0.033624 0.285023 0.829619 231 224 214
0.036453 0.285219 0.829430 234 227 217
0.039236 0.285509 0.829114 231 224 214
0.041874 0.286084 0.828418 233 226 216
0.044737 0.286221 0.828307 230 223 213
0.047700 0.286174 0.828443 230 225 219
0.050740 0.285991 0.828759 229 224 218
0.053827 0.285735 0.829175 228 223 217
0.056851 0.285608 0.829417 231 224 216
0.059974 0.285312 0.829885 231 224 216
0.063100 0.285028 0.830338 231 224 216
0.066286 0.284651 0.830915 230 223 215
0.069380 0.284452 0.831254 229 222 214
0.072505 0.284214 0.831646 226 222 213
0.075606 0.284028 0.831968 227 223 214
0.079067 0.283244 0.833090 227 223 214
0.082295 0.282878 0.833655 231 224 216
0.085093 0.283241 0.833243 231 224 216
0.087725 0.283878 0.832465 231 224 216
0.089375 0.286110 0.829553 230 223 213
0.092296 0.286253 0.829434 230 221 212
0.095334 0.286217 0.829557 230 223 215
0.098241 0.286395 0.829393 230 223 215
0.100808 0.287109 0.828512 229 222 214
0.103416 0.287752 0.827725 228 221 213
0.106094 0.288284 0.827087 228 221 213
0.108321 0.289496 0.825538 227 220 212
0.110782 0.290341 0.824480 229 222 214
0.113186 0.291262 0.823321 229 222 214
0.116327 0.291085 0.823632 227 220 212
0.119121 0.291428 0.823248 228 221 213
0.122230 0.291314 0.823475 230 223 215
0.125151 0.291478 0.823329 230 223 215
0.127226 0.292849 0.821566 231 224 216
0.130054 0.293142 0.821249 232 225 217
0.132965 0.293320 0.821084 232 225 217
0.135393 0.294170 0.820019 232 225 217
0.138124 0.294596 0.819523 232 225 215
0.141051 0.294755 0.819384 227 220 210
0.143772 0.295195 0.818868 216 212 203
0.146872 0.295130 0.819031 207 203 194
0.149957 0.295093 0.819156 193 189 180
0.153110 0.294972 0.819394 185 180 174
0.154908 0.296621 0.817256 174 169 163
0.157782 0.296862 0.817008 167 162 158
0.160468 0.297346 0.816434 163 158 152
0.162716 0.298381 0.815118 164 159 153
0.165287 0.299001 0.814363 168 163 157
0.168500 0.298818 0.814683 172 167 161
0.171474 0.298940 0.814595 177 172 166
0.174664 0.298801 0.814858 177 172 168
0.177688 0.298872 0.814837 177 172 168
0.180581 0.299106 0.814599 180 175 172
0.183550 0.299252 0.814479 176 171 168
0.186424 0.299513 0.814204 179 174 171
0.313091 0.199130 0.950143 65 62 53
0.317458 0.198572 0.950990 74 74 66
0.320051 0.199929 0.949258 74 73 68
0.321453 0.202540 0.945837 48 48 46
0.322699 0.205285 0.942236 36 36 38
0.324115 0.207817 0.938920 14 13 18
0.324571 0.211319 0.934297 12 11 16
0.325170 0.214630 0.929931 16 15 20
0.325028 0.218660 0.924596 21 20 25
0.325700 0.221810 0.920444 23 22 27
0.326572 0.224719 0.916616 20 19 24
0.326972 0.228068 0.912194 16 15 20
0.327278 0.231470 0.907701 15 14 19
0.328965 0.233463 0.905105 21 21 23
0.330231 0.235849 0.901979 23 23 25
0.331974 0.237743 0.899517 32 32 34
0.333422 0.239902 0.896695 32 32 34
0.332938 0.243899 0.891394 40 40 40
0.334450 0.245938 0.888733 37 35 36
0.336319 0.247616 0.886559 40 38 39
0.337909 0.249541 0.884051 41 41 39
0.339270 0.251661 0.881280 36 36 34
0.340894 0.253514 0.878868 50 50 48
0.342208 0.255633 0.876095 38 38 36
0.344168 0.257139 0.874152 41 41 39
0.346723 0.258086 0.872962 49 49 47
0.348644 0.259602 0.871003 38 38 36
0.350429 0.261225 0.868898 55 55 53
0.352599 0.262489 0.867280 31 31 31
0.355744 0.262875 0.866847 36 36 36
0.357928 0.264111 0.865265 24 24 24
0.360487 0.265007 0.864143 15 15 13
0.363317 0.265660 0.863347 14 14 12
0.365288 0.267055 0.861550 23 23 21
0.368201 0.267628 0.860864 24 24 22
0.371514 0.267855 0.860645 47 47 45
0.374204 0.268615 0.859705 55 54 52
0.378137 0.268320 0.860192 44 43 41
0.380715 0.269173 0.859127 54 53 51
-0.392951 0.221924 0.907183 11 9 14
-0.390779 0.220627 0.908968 11 9 14
-0.388924 0.218379 0.912010 11 9 14
-0.386527 0.217623 0.913079 10 8 13
-0.383445 0.218835 0.911544 8 6 11
-0.380468 0.219760 0.910388 11 9 14
-0.378046 0.219029 0.911425 8 6 11
-0.375451 0.218794 0.911804 9 7 12
-0.372848 0.218564 0.912178 9 7 12
-0.370358 0.217959 0.913049 10 8 13
-0.367393 0.218845 0.911945 10 8 13
-0.364333 0.220053 0.910415 10 8 13
-0.360664 0.223307 0.906175 12 10 13
-0.357366 0.225410 0.903459 13 9 10
-0.354417 0.226376 0.902248 38 34 33
-0.351790 0.226239 0.902498 106 101 98
-0.349426 0.225152 0.904006 125 117 115
-0.346675 0.225410 0.903735 137 129 126
-0.344138 0.224875 0.904513 144 137 131
-0.341594 0.224331 0.905303 150 143 135
-0.339008 0.223913 0.905927 153 149 140
-0.336370 0.223667 0.906323 151 146 140
-0.333804 0.223106 0.907136 155 150 146
-0.331157 0.222836 0.907565 159 150 151
-0.328585 0.222226 0.908443 154 149 146
-0.325930 0.221925 0.908912 146 141 138
-0.323415 0.220989 0.910225 138 133 130
-0.320794 0.220465 0.910991 131 126 123
-0.318085 0.220290 0.911294 125 124 122
-0.315341 0.220253 0.911414 127 127 127
-0.312498 0.220670 0.910932 132 131 127
-0.309855 0.220110 0.911745 137 130 122
-0.307136 0.219878 0.912125 122 112 100
-0.304698 0.218179 0.914452 131 118 109
-0.301976 0.217862 0.914944 150 136 133
-0.299245 0.217547 0.915434 110 100 99
-0.296451 0.217547 0.915507 50 45 49
-0.293560 0.218079 0.914872 12 11 17
-0.290729 0.218262 0.914701 28 31 40
-0.287787 0.219108 0.913651 25 27 39
-0.284912 0.219562 0.913121 29 31 44
-0.281986 0.220355 0.912140 40 42 54
-0.279027 0.221398 0.910826 40 40 50
-0.276059 0.222546 0.909374 22 21 29
-0.272907 0.225088 0.906069 11 10 16
-0.269798 0.227478 0.902965 12 11 17
-0.266960 0.227910 0.902463 12 11 17
-0.264749 0.223209 0.908783 17 16 22
-0.263060 0.213583 0.921649 20 19 25
-0.261130 0.205180 0.932894 16 15 21
-0.258667 0.200903 0.938655 16 15 21
-0.255930 0.198840 0.941473 18 17 23
-0.253076 0.197730 0.943026 17 16 22
-0.250064 0.198186 0.942496 17 16 22
-0.246953 0.199814 0.940408 17 16 22
-0.243489 0.206029 0.932218 18 17 23
-0.231492 0.255669 0.866400 208 204 193
-0.228826 0.255312 0.866944 211 205 189
-0.226206 0.253955 0.868819 211 204 186
-0.223630 0.251275 0.872457 211 204 186
-0.220962 0.249999 0.874225 210 203 187
-0.218240 0.249680 0.874720 208 201 185
-0.215496 0.249859 0.874552 207 200 184
-0.212745 0.250188 0.874186 207 200 184
-0.209990 0.250680 0.873601 207 200 184
-0.207234 0.251369 0.872754 205 198 182
-0.204478 0.252379 0.871481 208 201 185
-0.201730 0.253165 0.870504 205 198 182
-0.198986 0.253818 0.869704 205 198 182
-0.196244 0.254371 0.869039 205 198 182
-0.193506 0.255088 0.868155 204 197 181
-0.190776 0.256005 0.867004 204 197 181
-0.188048 0.256784 0.866036 205 198 182
-0.185338 0.258012 0.864470 205 198 182
-0.182624 0.258862 0.863408 206 199 183
-0.179890 0.259092 0.863173 205 198 182
-0.177167 0.259586 0.862585 205 198 182
-0.174447 0.260112 0.861955 207 200 184
-0.171761 0.261214 0.860555 205 198 182
-0.169064 0.262016 0.859557 206 199 183
-0.166337 0.262294 0.859257 207 200 184
-0.163602 0.262478 0.859082 207 200 184
-0.160840 0.262342 0.859334 206 199 183
-0.158065 0.262122 0.859699 207 200 184
-0.155289 0.261964 0.859982 206 199 183
-0.152597 0.262745 0.859011 207 200 184
-0.149912 0.263561 0.857993 208 201 185
-0.147255 0.264588 0.856693 207 200 184
-0.144578 0.265375 0.855715 208 201 185
-0.141870 0.265853 0.855147 208 201 185
-0.139175 0.266438 0.854438 206 199 183
-0.136479 0.266990 0.853772 208 201 185
-0.133840 0.267945 0.852568 207 200 184
-0.131190 0.268780 0.851524 208 201 185
-0.128473 0.269123 0.851138 209 202 186
-0.125766 0.269531 0.850664 208 201 185
-0.123073 0.270025 0.850075 208 201 185
-0.120388 0.270561 0.849430 210 202 189
-0.117710 0.271130 0.848742 210 202 189
-0.114994 0.271465 0.848365 210 202 189
-0.112210 0.271421 0.848496 209 202 186
-0.109410 0.271326 0.848696 210 203 187
-0.106590 0.271149 0.849004 210 203 187
-0.103816 0.271234 0.848962 211 203 190
-0.100983 0.271051 0.849279 211 203 190
-0.098192 0.271094 0.849294 211 203 190
-0.095535 0.271783 0.848445 211 203 190
-0.092951 0.272789 0.847172 210 204 190
-0.090282 0.273386 0.846445 211 205 191
-0.087670 0.274213 0.845411 212 206 190
-0.084944 0.274541 0.845044 212 204 191
-0.082252 0.275013 0.844485 212 204 191
-0.079655 0.275859 0.843424 210 204 190
-0.076920 0.276145 0.843114 211 205 191
-0.074179 0.276409 0.842834 211 208 193
-0.071127 0.275512 0.844108 193 191 179
-0.068277 0.275412 0.844314 146 143 136
-0.065881 0.276962 0.842312 111 107 104
-0.064417 0.281740 0.835984 216 209 203
-0.062608 0.285150 0.831489 230 223 215
-0.059818 0.285126 0.831592 233 226 218
-0.057000 0.285029 0.831794 225 218 210
-0.053948 0.284187 0.832995 194 187 179
-0.050984 0.283673 0.833757 177 170 162
-0.048251 0.283913 0.833507 194 187 179
-0.045429 0.283885 0.833616 213 206 198
-0.042522 0.283612 0.834055 230 223 215
-0.039588 0.283286 0.834566 237 230 222
-0.036595 0.282813 0.835274 240 233 225
-0.033712 0.282680 0.835525 237 230 222
-0.030856 0.282642 0.835649 233 226 218
-0.027883 0.282295 0.836189 232 225 217
-0.025035 0.282308 0.836244 231 224 216
-0.022319 0.282690 0.835806 230 223 215
-0.019611 0.283090 0.835343 232 225 217
-0.017008 0.283762 0.834515 232 225 217
-0.014336 0.284249 0.833935 231 224 216
-0.011603 0.284578 0.833567 231 224 216
-0.008469 0.283918 0.834527 230 223 215
-0.005511 0.283716 0.834873 232 225 217
-0.002713 0.283917 0.834677 232 225 217
0.000033 0.284244 0.834313 232 225 217
0.002750 0.284642 0.833853 232 228 219
0.005560 0.284824 0.833682 233 224 219
0.008408 0.284926 0.833620 234 223 217
0.011410 0.284692 0.834010 230 226 214
0.014218 0.284902 0.833803 228 229 215
0.017063 0.285034 0.833700 233 226 218
0.019919 0.285151 0.833618 234 224 222
0.022681 0.285473 0.833260 232 225 219
0.025209 0.286287 0.832242 233 226 218
0.027707 0.287151 0.831154 230 223 215
0.030435 0.287534 0.830715 230 223 215
0.033185 0.287873 0.830335 231 224 216
0.036043 0.287998 0.830242 230 223 215
0.038854 0.288221 0.830018 231 224 216
0.041548 0.288674 0.829483 231 224 216
0.044356 0.288908 0.829244 230 223 215
0.047167 0.289138 0.829011 230 223 215
0.050396 0.288590 0.829824 230 223 215
0.053678 0.287966 0.830740 231 224 216
0.056831 0.287600 0.831308 230 223 215
0.060052 0.287127 0.832022 230 223 215
0.063085 0.287012 0.832254 230 223 215
0.066260 0.286655 0.832811 229 222 214
0.069357 0.286452 0.833162 230 223 215
0.072467 0.286239 0.833526 226 222 213
0.075567 0.286056 0.833851 227 223 214
0.078911 0.285470 0.834716 232 225 217
0.082205 0.284991 0.835440 231 224 216
0.084938 0.285459 0.834888 229 222 214
0.087514 0.286183 0.833989 233 224 215
0.089457 0.287926 0.831718 230 221 212
0.092523 0.287839 0.831913 231 222 213
0.095656 0.287653 0.832241 228 221 213
0.098700 0.287620 0.832364 232 225 217
0.101526 0.287935 0.832017 229 222 214
0.104241 0.288423 0.831437 231 224 216
0.106942 0.288929 0.830833 232 225 217
0.109262 0.290009 0.829454 233 226 218
0.111842 0.290686 0.828619 232 225 217
0.114468 0.291289 0.827883 226 219 211
0.117806 0.290843 0.828564 215 210 204
0.120823 0.290880 0.828592 205 200 194
0.124054 0.290615 0.829029 193 188 182
0.126790 0.291067 0.828497 182 177 171
0.128891 0.292417 0.826753 175 170 164
0.132059 0.292255 0.827051 167 162 156
0.135476 0.291756 0.827804 166 161 155
0.136983 0.293901 0.824986 167 162 156
0.139619 0.294475 0.824288 169 164 158
0.142759 0.294365 0.824517 172 167 161
0.145717 0.294507 0.824403 172 169 164
0.148009 0.295536 0.823092 175 172 167
0.151069 0.295545 0.823159 177 174 169
0.155396 0.293909 0.825450 177 173 170
0.157454 0.295240 0.823730 178 174 171
0.308738 0.202018 0.951824 63 60 51
0.313610 0.200900 0.953439 45 42 35
0.317761 0.200581 0.953972 68 67 62
0.320079 0.202229 0.951836 52 51 49
0.321089 0.205245 0.947843 33 31 32
0.321972 0.208359 0.943718 13 12 17
0.322858 0.211430 0.939651 12 11 16
0.323403 0.214816 0.935153 14 13 18
0.324279 0.217820 0.931174 18 17 22
0.324352 0.221608 0.926131 22 21 26
0.325007 0.224758 0.921951 26 25 30
0.325678 0.227853 0.917844 20 19 24
0.326141 0.231120 0.913505 15 14 19
0.326338 0.234611 0.908859 15 14 19
0.328122 0.236494 0.906397 14 13 18
0.329310 0.238943 0.903166 16 15 20
0.330801 0.241068 0.900373 22 22 24
0.332045 0.243408 0.897287 29 27 30
0.331423 0.247513 0.891804 30 28 31
0.332761 0.249699 0.888925 34 32 33
0.334638 0.251354 0.886769 30 28 29
0.336260 0.253231 0.884311 36 36 34
0.337516 0.255430 0.881413 46 46 44
0.339153 0.257253 0.879027 38 38 36
0.340697 0.259143 0.876550 44 44 42
0.342473 0.260801 0.874386 31 31 29
0.344822 0.261923 0.872952 36 36 34
0.346994 0.263195 0.871314 42 42 40
0.348825 0.264763 0.869273 42 42 40
0.350668 0.266304 0.867267 38 38 38
0.353652 0.266822 0.866655 37 37 37
0.355984 0.267911 0.865264 45 45 45
0.358551 0.268786 0.864165 33 33 33
0.361699 0.269151 0.863760 31 31 29
0.363979 0.270266 0.862333 28 28 26
0.366393 0.271258 0.861074 16 16 14
0.369775 0.271417 0.860950 18 18 16
0.372287 0.272317 0.859816 22 20 21
0.376986 0.271369 0.861200 47 45 46
0.378353 0.273226 0.858761 41 39 40
-0.393394 0.222199 0.911396 11 9 14
-0.390828 0.221986 0.911751 10 8 13
-0.389027 0.219588 0.915016 10 8 13
-0.386613 0.218876 0.916037 10 8 13
-0.383567 0.219974 0.914647 10 8 13
-0.380593 0.220878 0.913515 9 7 12
-0.378130 0.220262 0.914407 10 8 13
-0.375676 0.219592 0.915373 10 8 13
-0.372979 0.219638 0.915384 10 8 13
-0.370609 0.218648 0.916776 10 8 13
-0.367789 0.219049 0.916314 11 9 14
-0.364886 0.219723 0.915489 10 8 13
-0.361425 0.222245 0.912200 10 8 13
-0.358277 0.223791 0.910211 12 7 11
-0.355214 0.225088 0.908555 16 12 13
-0.352411 0.225510 0.908065 69 65 64
-0.349829 0.225154 0.908612 120 112 109
-0.347042 0.225507 0.908214 129 121 118
-0.344510 0.224924 0.909065 137 132 128
-0.341871 0.224706 0.909429 144 139 133
-0.339255 0.224378 0.909940 147 143 134
-0.336741 0.223621 0.911022 145 141 132
-0.334202 0.222921 0.912031 131 123 120
-0.331536 0.222688 0.912415 125 117 115
-0.328916 0.222241 0.913086 121 116 120
-0.326296 0.221756 0.913807 137 127 126
-0.323751 0.220906 0.915015 136 121 116
-0.321114 0.220410 0.915752 136 121 114
-0.318488 0.219822 0.916612 134 117 109
-0.315791 0.219516 0.917096 138 120 110
-0.312946 0.219873 0.916694 137 120 112
-0.310366 0.218944 0.918009 144 133 127
-0.307684 0.218458 0.918734 116 106 105
-0.305167 0.217077 0.920654 46 40 42
-0.302373 0.217057 0.920757 15 13 16
-0.299589 0.216962 0.920960 18 17 22
-0.296805 0.216837 0.921203 17 17 25
-0.293909 0.217317 0.920638 23 21 32
-0.291040 0.217644 0.920276 39 39 51
-0.288067 0.218601 0.919073 51 53 65
-0.285211 0.218859 0.918805 48 50 63
-0.282251 0.219784 0.917645 40 42 54
-0.279344 0.220389 0.916912 47 47 57
-0.276381 0.221405 0.915629 34 33 41
-0.273224 0.223864 0.912416 12 11 17
-0.269969 0.227222 0.908001 11 10 16
-0.267090 0.227888 0.907186 13 12 18
-0.264720 0.224416 0.911907 18 17 23
-0.262803 0.216728 0.922269 19 18 24
-0.260837 0.208722 0.933061 19 18 24
-0.258367 0.204591 0.938668 18 17 23
-0.255610 0.202830 0.941104 17 16 22
-0.252661 0.202835 0.941178 19 18 24
-0.249726 0.202622 0.941542 18 17 23
-0.246599 0.204600 0.938974 17 16 22
-0.243336 0.208481 0.933857 16 15 21
-0.231340 0.258214 0.867481 195 191 182
-0.228659 0.258194 0.867580 209 203 189
-0.226039 0.256956 0.869311 212 205 187
-0.223460 0.254475 0.872708 211 204 186
-0.220821 0.252678 0.875190 210 203 187
-0.218111 0.252188 0.875920 209 202 186
-0.215369 0.252416 0.875689 209 202 186
-0.212620 0.252840 0.875194 207 200 184
-0.209868 0.253437 0.874469 206 199 183
-0.207118 0.254071 0.873693 206 199 183
-0.204368 0.255046 0.872460 205 198 182
-0.201624 0.255929 0.871349 205 198 182
-0.198885 0.256564 0.870572 205 198 182
-0.196148 0.256937 0.870146 205 198 182
-0.193416 0.257768 0.869105 204 197 181
-0.190690 0.258623 0.868032 204 197 181
-0.187963 0.259220 0.867305 204 197 181
-0.185249 0.260209 0.866053 205 198 182
-0.182545 0.261284 0.864684 205 198 182
-0.179827 0.261804 0.864060 205 198 182
-0.177113 0.262362 0.863385 205 198 182
-0.174393 0.262782 0.862895 206 199 183
-0.171717 0.263972 0.861372 206 199 183
-0.169031 0.264850 0.860267 206 199 183
-0.166311 0.265145 0.859945 206 199 183
-0.163589 0.265424 0.859644 207 200 184
-0.160823 0.265157 0.860077 207 200 184
-0.158035 0.264712 0.860749 207 200 184
-0.155262 0.264544 0.861050 206 199 183
-0.152578 0.265359 0.860029 207 200 184
-0.149895 0.266144 0.859050 205 198 182
-0.147209 0.266855 0.858169 207 200 184
-0.144530 0.267591 0.857254 208 201 185
-0.141835 0.268166 0.856556 207 200 184
-0.139145 0.268758 0.855835 207 200 184
-0.136455 0.269327 0.855144 207 200 184
-0.133844 0.270471 0.853681 209 202 186
-0.131210 0.271386 0.852524 209 202 186
-0.128487 0.271652 0.852242 208 201 185
-0.125795 0.272123 0.851683 209 202 186
-0.123113 0.272662 0.851033 209 202 186
-0.120423 0.273134 0.850473 210 202 189
-0.117757 0.273743 0.849727 211 203 190
-0.115068 0.274202 0.849186 211 203 190
-0.112304 0.274245 0.849202 210 202 189
-0.109488 0.274026 0.849572 211 204 188
-0.106647 0.273714 0.850068 211 204 188
-0.103851 0.273670 0.850202 212 204 191
-0.101006 0.273408 0.850630 212 204 191
-0.098224 0.273480 0.850609 212 204 191
-0.095561 0.274125 0.849816 211 205 191
-0.092965 0.275055 0.848639 211 205 191
-0.090277 0.275551 0.848046 212 206 192
-0.087670 0.276393 0.846989 212 206 190
-0.084975 0.276837 0.846465 212 204 191
-0.082296 0.277350 0.845850 213 207 195
-0.079734 0.278318 0.844621 211 205 193
-0.077043 0.278758 0.844104 208 204 193
-0.074271 0.278887 0.844005 184 181 172
-0.071064 0.277405 0.846080 133 133 125
-0.068132 0.277002 0.846701 103 102 97
-0.065784 0.278723 0.844456 105 104 102
-0.064380 0.283690 0.837832 211 206 200
-0.062644 0.287331 0.832996 229 222 214
-0.060039 0.287924 0.832271 230 223 215
-0.057343 0.288209 0.831962 234 227 219
-0.054320 0.287438 0.833077 229 222 214
-0.051423 0.287110 0.833596 229 222 214
-0.048680 0.287289 0.833430 229 222 214
-0.045837 0.287166 0.833672 231 224 216
-0.042955 0.286946 0.834045 232 225 217
-0.040158 0.286997 0.834052 231 224 216
-0.037326 0.286960 0.834179 230 223 215
-0.034421 0.286725 0.834572 231 224 216
-0.031537 0.286572 0.834855 233 226 218
-0.028583 0.286244 0.835376 232 225 217
-0.025666 0.286038 0.835731 231 224 216
-0.022965 0.286424 0.835287 231 224 216
-0.020325 0.286973 0.834622 230 223 215
-0.017735 0.287644 0.833791 231 224 216
-0.015023 0.287994 0.833395 230 223 215
-0.012273 0.288251 0.833125 231 224 216
-0.009167 0.287637 0.834034 232 225 217
-0.006165 0.287302 0.834564 232 225 217
-0.003364 0.287467 0.834418 232 225 217
-0.000658 0.287865 0.833958 233 226 218
0.002089 0.288166 0.833629 230 228 216
0.004831 0.288481 0.833280 232 225 215
0.007607 0.288719 0.833036 234 224 215
0.010596 0.288488 0.833427 231 224 214
0.013525 0.288405 0.833617 230 226 215
0.016371 0.288514 0.833548 234 225 218
0.019250 0.288559 0.833565 233 224 217
0.022202 0.288458 0.833781 228 226 214
0.024772 0.289166 0.832901 228 224 215
0.027078 0.290410 0.831295 231 224 216
0.029808 0.290770 0.830886 231 224 216
0.032704 0.290798 0.830927 230 223 215
0.035580 0.290872 0.830905 229 222 214
0.038500 0.290869 0.830989 230 223 215
0.041144 0.291409 0.830336 231 224 216
0.043870 0.291786 0.829904 230 223 215
0.046578 0.292199 0.829423 231 224 216
0.049721 0.291800 0.830043 231 224 216
0.053103 0.290979 0.831236 231 224 216
0.056370 0.290394 0.832109 229 222 214
0.059598 0.289900 0.832859 229 222 214
0.062575 0.289875 0.832973 228 221 215
0.065763 0.289486 0.833582 229 222 216
0.069140 0.288787 0.834611 231 224 218
0.072333 0.288426 0.835181 229 224 218
0.075468 0.288182 0.835593 230 225 219
0.078936 0.287388 0.836752 233 228 222
0.082191 0.286977 0.837392 233 226 220
0.085293 0.286833 0.837669 232 225 219
0.088141 0.287115 0.837367 225 218 212
0.090412 0.288331 0.835798 217 210 204
0.093765 0.287803 0.836598 207 200 194
0.097244 0.287091 0.837646 192 187 181
0.100453 0.286824 0.838091 182 177 171
0.103744 0.286445 0.838688 172 167 161
0.106191 0.287376 0.837506 168 163 157
0.108651 0.288276 0.836366 164 159 153
0.110578 0.289969 0.834147 165 160 156
0.112994 0.290907 0.832954 168 163 159
0.115814 0.291238 0.832587 173 168 164
0.119667 0.290061 0.834270 174 169 165
0.123232 0.289328 0.835349 173 169 166
0.127116 0.288161 0.837020 178 174 171
0.130203 0.288155 0.837112 177 173 170
0.132690 0.289001 0.836045 174 170 167
0.136154 0.288475 0.836843 174 170 167
0.141526 0.289604 0.835474 166 162 159
0.144244 0.290122 0.834853 157 153 150
0.288313 0.188205 0.975444 47 48 52
0.292167 0.188250 0.975488 42 43 47
0.295240 0.189199 0.974299 37 38 43
0.298485 0.189943 0.973388 31 32 37
0.296294 0.201147 0.958303 21 20 26
0.300226 0.201041 0.958552 52 51 49
0.304046 0.201068 0.958619 75 74 69
0.308123 0.200820 0.959061 69 66 61
0.311011 0.201875 0.957725 64 61 56
0.315146 0.201576 0.958238 42 41 36
0.317918 0.202748 0.956741 46 45 43
0.319572 0.205097 0.953635 48 46 49
0.320319 0.208375 0.949259 12 11 16
0.320925 0.211760 0.944735 13 12 17
0.321413 0.215225 0.940102 11 10 15
0.321998 0.218545 0.935664 14 13 18
0.322939 0.221461 0.931778 21 20 25
0.323003 0.225233 0.926721 27 26 31
0.324004 0.228012 0.923022 25 24 29
0.325017 0.230745 0.919384 22 21 26
0.325613 0.233862 0.915219 17 16 21
0.325830 0.237316 0.910593 14 13 18
0.327865 0.238943 0.908466 14 13 18
0.329195 0.241241 0.905419 14 13 18
0.330745 0.243301 0.902699 16 14 19
0.332247 0.245384 0.899946 19 17 22
0.331813 0.249294 0.894690 25 23 26
0.332930 0.251685 0.891513 28 26 27
0.334784 0.253356 0.889323 37 37 37
0.336500 0.255140 0.886977 41 41 39
0.338020 0.257086 0.884407 35 35 33
0.339210 0.259318 0.881445 52 52 50
0.340646 0.261301 0.878825 39 39 37
0.342382 0.262990 0.876607 39 39 37
0.344548 0.264273 0.874945 38 38 36
0.346541 0.265700 0.873085 37 37 35
0.348338 0.267289 0.871002 40 40 38
0.350031 0.268956 0.868812 43 43 41
0.352598 0.269836 0.867702 40 40 38
0.354826 0.271007 0.866191 39 39 37
0.357268 0.271982 0.864950 42 42 40
0.359688 0.272970 0.863691 44 44 42
0.362053 0.273997 0.862377 36 36 34
0.365083 0.274449 0.861852 36 36 34
0.368606 0.274482 0.861904 21 21 19
0.370470 0.275919 0.860027 19 17 18
0.375217 0.274927 0.861485 16 14 15
0.376351 0.276962 0.858787 23 21 22
-0.393529 0.223332 0.914486 11 9 14
-0.390938 0.223183 0.914761 11 9 14
-0.388973 0.221248 0.917428 11 9 14
-0.386560 0.220532 0.918464 10 8 13
-0.383692 0.221105 0.917771 10 8 13
-0.380699 0.222057 0.916571 11 9 14
-0.378312 0.221208 0.917785 10 8 13
-0.375834 0.220599 0.918677 10 8 13
-0.373121 0.220684 0.918640 10 8 13
-0.370823 0.219458 0.920360 10 8 13
-0.368007 0.219831 0.919936 10 8 13
-0.365274 0.219938 0.919869 10 8 13
-0.362058 0.221620 0.917689 10 8 13
-0.359070 0.222587 0.916468 10 8 13
-0.356098 0.223517 0.915297 13 11 14
-0.353125 0.224472 0.914091 39 35 36
-0.350414 0.224521 0.914102 100 96 93
-0.347586 0.224980 0.913562 119 114 111
-0.344948 0.224742 0.913958 129 123 123
-0.342197 0.224907 0.913813 131 126 123
-0.339575 0.224572 0.914340 133 126 120
-0.337055 0.223809 0.915441 110 101 92
-0.334496 0.223158 0.916393 96 86 77
-0.331876 0.222710 0.917072 116 102 99
-0.329237 0.222303 0.917697 125 110 105
-0.326610 0.221810 0.918436 139 122 115
-0.324063 0.220934 0.919691 146 131 126
-0.321460 0.220250 0.920688 123 109 106
-0.318875 0.219433 0.921865 67 56 52
-0.316142 0.219240 0.922203 57 46 42
-0.313286 0.219600 0.921798 51 43 40
-0.310677 0.218767 0.922997 44 40 41
-0.307998 0.218212 0.923822 36 32 33
-0.305371 0.217345 0.925067 26 22 23
-0.302552 0.217413 0.925056 19 17 18
-0.299733 0.217463 0.925068 16 15 20
-0.296895 0.217599 0.924964 16 13 22
-0.294016 0.217949 0.924573 21 18 29
-0.291139 0.218287 0.924198 35 35 45
-0.288206 0.218965 0.923366 35 38 47
-0.285366 0.219072 0.923302 33 35 47
-0.282433 0.219764 0.922450 41 43 55
-0.279540 0.220207 0.921934 51 51 59
-0.276566 0.221219 0.920652 39 38 44
-0.273405 0.223633 0.917483 16 14 19
-0.270255 0.226113 0.914222 12 11 16
-0.267197 0.228055 0.911687 14 13 19
-0.264694 0.225602 0.915070 16 15 23
-0.262471 0.220509 0.922010 16 15 21
-0.260417 0.213387 0.931685 20 19 25
-0.257906 0.209791 0.936612 18 17 23
-0.255150 0.208199 0.938839 18 17 23
-0.252256 0.207817 0.939438 18 17 23
-0.249140 0.209785 0.936868 17 16 22
-0.245999 0.212252 0.933626 17 16 22
-0.242939 0.213974 0.931388 17 16 22
-0.231226 0.260167 0.869345 173 170 163
-0.228506 0.260841 0.868512 212 206 192
-0.225876 0.259871 0.869896 212 205 187
-0.223303 0.257404 0.873300 212 205 189
-0.220672 0.255581 0.875836 211 204 188
-0.217968 0.255083 0.876585 209 201 188
-0.215227 0.255450 0.876168 208 201 185
-0.212481 0.256056 0.875427 208 201 185
-0.209740 0.256485 0.874925 206 199 183
-0.206999 0.256990 0.874321 205 198 182
-0.204256 0.257877 0.873201 206 199 183
-0.201518 0.258685 0.872187 205 198 182
-0.198785 0.259321 0.871406 204 197 181
-0.196054 0.259834 0.870791 204 197 181
-0.193326 0.260445 0.870044 204 197 181
-0.190600 0.261045 0.869310 204 197 181
-0.187876 0.261616 0.868616 204 197 181
-0.185163 0.262491 0.867511 204 197 181
-0.182459 0.263455 0.866287 204 197 181
-0.179755 0.264278 0.865252 205 198 182
-0.177052 0.265003 0.864349 205 198 182
-0.174341 0.265488 0.863771 205 198 182
-0.171674 0.266739 0.862158 206 199 183
-0.168998 0.267676 0.860969 205 198 182
-0.166289 0.268049 0.860542 206 199 183
-0.163569 0.268266 0.860325 207 200 184
-0.160795 0.267820 0.861006 207 200 184
-0.158019 0.267464 0.861566 207 200 184
-0.155262 0.267407 0.861721 207 200 184
-0.152574 0.268117 0.860838 207 200 184
-0.149888 0.268816 0.859970 208 201 185
-0.147198 0.269436 0.859209 208 201 185
-0.144521 0.270156 0.858313 208 201 185
-0.141840 0.270800 0.857519 208 201 185
-0.139173 0.271533 0.856604 207 200 184
-0.136501 0.272195 0.855786 209 202 186
-0.133895 0.273328 0.854330 209 202 186
-0.131270 0.274253 0.853156 209 202 186
-0.128561 0.274577 0.852796 209 202 186
-0.125886 0.275116 0.852143 210 203 187
-0.123221 0.275711 0.851415 209 202 186
-0.120537 0.276175 0.850865 211 203 190
-0.117884 0.276813 0.850078 210 202 189
-0.115191 0.277209 0.849620 211 203 190
-0.112436 0.277263 0.849625 210 202 189
-0.109636 0.277090 0.849938 211 203 190
-0.106794 0.276738 0.850493 210 203 187
-0.103971 0.276523 0.850864 211 203 190
-0.101137 0.276288 0.851261 211 203 190
-0.098366 0.276384 0.851211 212 204 191
-0.095692 0.276944 0.850530 212 206 192
-0.093105 0.277886 0.849332 212 206 192
-0.090383 0.278204 0.848979 212 206 192
-0.087768 0.278984 0.847999 212 206 190
-0.085069 0.279396 0.847520 212 206 192
-0.082352 0.279731 0.847145 210 206 194
-0.079802 0.280729 0.845869 205 201 192
-0.077094 0.281090 0.845458 168 165 160
-0.074281 0.281049 0.845593 125 124 120
-0.071042 0.279446 0.847850 109 110 105
-0.068019 0.278710 0.848929 102 101 99
-0.065681 0.280461 0.846631 97 96 94
-0.064453 0.286020 0.839159 207 202 196
-0.062994 0.290581 0.833042 230 223 215
-0.060367 0.291068 0.832459 231 224 216
-0.057679 0.291353 0.832150 232 225 217
-0.054764 0.290906 0.832837 228 221 213
-0.051898 0.290646 0.833268 231 224 216
-0.049141 0.290749 0.833208 231 224 216
-0.046265 0.290498 0.833629 232 225 217
-0.043463 0.290490 0.833718 231 224 216
-0.040732 0.290705 0.833506 231 224 216
-0.037993 0.290900 0.833320 231 224 216
-0.035098 0.290662 0.833723 231 224 216
-0.032218 0.290484 0.834045 231 224 216
-0.029249 0.290079 0.834675 230 223 215
-0.026336 0.289853 0.835064 231 224 216
-0.023582 0.290067 0.834852 230 223 215
-0.020980 0.290683 0.834094 231 224 216
-0.018432 0.291429 0.833159 231 224 216
-0.015699 0.291697 0.832875 230 223 215
-0.013069 0.292224 0.832238 230 223 215
-0.010017 0.291710 0.833018 231 224 216
-0.006992 0.291289 0.833673 231 224 216
-0.004206 0.291459 0.833521 232 225 217
-0.001403 0.291596 0.833417 232 225 217
0.001458 0.291604 0.833487 232 228 217
0.004224 0.291840 0.833246 232 225 215
0.006887 0.292313 0.832683 231 224 216
0.009929 0.291939 0.833274 232 225 219
0.012908 0.291727 0.833644 232 224 221
0.015771 0.291780 0.833655 232 221 215
0.018677 0.291747 0.833781 231 222 213
0.021654 0.291579 0.834093 231 227 218
0.024268 0.292176 0.833361 228 223 217
0.026700 0.293142 0.832125 227 222 216
0.029489 0.293370 0.831896 229 224 218
0.032360 0.293436 0.831888 229 224 218
0.035129 0.293713 0.831592 229 224 218
0.037969 0.293854 0.831483 231 226 220
0.040610 0.294384 0.830842 233 228 222
0.043379 0.294667 0.830538 232 227 221
0.046073 0.295092 0.830040 235 230 224
0.049367 0.294402 0.831065 231 226 220
0.052837 0.293413 0.832499 225 220 214
0.056043 0.292935 0.833235 218 213 207
0.059520 0.291991 0.834609 207 202 196
0.062901 0.291247 0.835709 198 193 189
0.065880 0.291233 0.835812 184 179 175
0.068902 0.291153 0.836005 174 169 165
0.072056 0.290856 0.836496 164 161 156
0.075348 0.290340 0.837286 163 159 156
0.078890 0.289424 0.838623 161 157 154
0.082344 0.288683 0.839722 162 158 155
0.085669 0.288175 0.840501 170 165 162
0.088626 0.288287 0.840434 173 169 166
0.090882 0.289530 0.838820 177 173 170
0.094704 0.288262 0.840640 178 177 173
0.098805 0.286591 0.843013 179 178 174
0.101812 0.286665 0.842998 178 174 171
0.245324 0.191337 0.975785 63 65 64
0.249401 0.191010 0.976342 62 63 65
0.252502 0.191915 0.975207 60 61 63
0.256174 0.192106 0.975054 61 62 64
0.259977 0.192142 0.975113 61 62 64
0.264998 0.190700 0.977202 60 61 63
0.269366 0.190079 0.978165 57 58 62
0.273855 0.189330 0.979303 56 57 61
0.278495 0.188422 0.980660 55 56 61
0.281900 0.188993 0.979986 53 54 58
0.285773 0.189015 0.980066 46 47 51
0.289196 0.189566 0.979419 45 46 50
0.292971 0.189712 0.979329 40 41 45
0.296389 0.190269 0.978673 35 36 40
0.299893 0.190729 0.978152 29 30 34
0.299279 0.195818 0.971262 23 22 27
0.300558 0.198725 0.967373 20 19 24
0.304832 0.198279 0.968097 41 41 41
0.307415 0.199705 0.966245 49 49 47
0.309859 0.201267 0.964205 66 65 63
0.312295 0.202822 0.962174 50 49 47
0.315260 0.203792 0.960948 36 35 33
0.317576 0.205446 0.958780 35 35 35
0.319099 0.207922 0.955479 21 20 25
0.319654 0.211386 0.950818 14 13 18
0.320000 0.215024 0.945916 13 12 17
0.320520 0.218434 0.941326 12 11 16
0.321016 0.221828 0.936757 14 13 18
0.321839 0.224845 0.932707 20 19 24
0.322023 0.228472 0.927814 27 26 31
0.323229 0.231027 0.924398 20 19 24
0.324221 0.233766 0.920728 20 19 24
0.325048 0.236636 0.916876 18 17 22
0.325427 0.239912 0.912463 16 15 20
0.327151 0.241835 0.909915 15 14 19
0.328429 0.244170 0.906798 14 12 17
0.330189 0.246014 0.904358 15 13 18
0.331811 0.247972 0.901761 17 15 20
0.331390 0.251850 0.896512 20 18 21
0.332535 0.254204 0.893366 28 26 27
0.334573 0.255693 0.891413 26 26 26
0.336228 0.257525 0.888986 35 35 35
0.337716 0.259494 0.886370 35 35 35
0.338769 0.261842 0.883230 39 39 39
0.340299 0.263728 0.880725 39 39 37
0.341984 0.265455 0.878442 30 30 28
0.344016 0.266852 0.876613 45 45 43
0.345968 0.268307 0.874703 45 45 43
0.347606 0.270029 0.872424 47 47 45
0.349041 0.271913 0.869921 54 54 52
0.351350 0.273012 0.868503 51 51 49
0.353339 0.274381 0.866711 44 44 42
0.355617 0.275487 0.865282 37 37 35
0.357701 0.276751 0.863633 39 39 37
0.360474 0.277416 0.862814 50 50 48
0.363465 0.277891 0.862257 38 38 36
0.366794 0.278081 0.862096 39 39 37
0.368074 0.279994 0.859549 32 30 31
0.372921 0.278911 0.861147 28 26 27
0.374016 0.280960 0.858413 20 18 19
-0.393396 0.225201 0.916594 12 7 13
-0.391257 0.223798 0.918564 10 8 13
-0.389350 0.221691 0.921486 10 8 13
-0.386871 0.221146 0.922300 11 9 14
-0.383870 0.222090 0.921106 12 10 15
-0.380946 0.222823 0.920195 10 8 13
-0.378588 0.221876 0.921552 18 16 21
-0.376074 0.221360 0.922328 18 16 21
-0.373438 0.221195 0.922631 12 7 13
-0.371130 0.219986 0.924342 10 8 13
-0.368322 0.220311 0.923983 10 8 13
-0.365654 0.220187 0.924232 11 8 15
-0.362630 0.221211 0.922929 9 6 13
-0.359692 0.221971 0.921982 12 10 15
-0.356668 0.223036 0.920624 11 9 12
-0.353617 0.224215 0.919111 16 14 17
-0.350841 0.224459 0.918861 49 48 46
-0.347965 0.225052 0.918141 85 83 84
-0.345217 0.225189 0.918035 105 100 104
-0.342492 0.225229 0.918061 104 98 98
-0.339858 0.224914 0.918569 112 103 98
-0.337203 0.224647 0.919010 111 98 89
-0.334664 0.223899 0.920102 134 117 107
-0.332121 0.223122 0.921233 134 114 105
-0.329470 0.222737 0.921835 111 94 87
-0.326868 0.222110 0.922765 61 51 49
-0.324337 0.221136 0.924164 35 30 34
-0.321728 0.220442 0.925184 25 20 24
-0.319045 0.220034 0.925818 46 42 41
-0.316315 0.219798 0.926219 53 49 48
-0.313499 0.219939 0.926112 39 37 38
-0.310869 0.219170 0.927234 28 26 27
-0.308178 0.218638 0.928037 19 18 23
-0.305579 0.217598 0.929529 20 19 24
-0.302788 0.217475 0.929778 17 15 20
-0.299883 0.217937 0.929236 18 16 21
-0.297047 0.218022 0.929204 16 13 20
-0.294189 0.218213 0.929030 24 23 29
-0.291285 0.218657 0.928511 25 24 30
-0.288364 0.219217 0.927837 26 27 31
-0.285500 0.219420 0.927646 26 29 36
-0.282560 0.220106 0.926799 25 25 35
-0.279670 0.220479 0.926378 36 35 41
-0.276684 0.221513 0.925061 46 44 49
-0.273518 0.223898 0.921913 26 24 27
-0.270348 0.226466 0.918515 11 9 14
-0.267272 0.228477 0.915873 12 11 17
-0.264662 0.226846 0.918167 13 13 21
-0.262271 0.223162 0.923245 17 16 22
-0.260083 0.217280 0.931307 20 19 25
-0.257557 0.213940 0.935922 17 16 22
-0.254850 0.211977 0.938671 20 19 25
-0.252012 0.211121 0.939919 19 18 24
-0.248973 0.212324 0.938374 18 17 23
-0.245850 0.214613 0.935354 18 17 23
-0.242723 0.217201 0.931928 17 16 22
-0.239638 0.219545 0.928833 14 13 21
-0.228380 0.263025 0.870056 208 202 188
-0.225767 0.261765 0.871846 212 205 187
-0.223174 0.259733 0.874686 212 205 189
-0.220538 0.258098 0.876985 211 204 188
-0.217823 0.258032 0.877156 209 201 188
-0.215087 0.258448 0.876672 208 201 185
-0.212344 0.259170 0.875771 207 200 184
-0.209615 0.259432 0.875495 205 198 182
-0.206879 0.259980 0.874831 205 198 182
-0.204143 0.260865 0.873709 205 198 182
-0.201413 0.261580 0.872819 205 198 182
-0.198686 0.262186 0.872076 204 197 181
-0.195961 0.262642 0.871535 204 197 181
-0.193236 0.263041 0.871074 205 198 182
-0.190512 0.263481 0.870557 204 197 181
-0.187790 0.263976 0.869964 204 197 181
-0.185076 0.264704 0.869054 204 197 181
-0.182367 0.265453 0.868116 205 198 182
-0.179668 0.266344 0.866985 205 198 182
-0.176975 0.267252 0.865830 204 197 181
-0.174276 0.267923 0.864998 206 199 183
-0.171607 0.269062 0.863529 206 199 183
-0.168931 0.269947 0.862404 207 200 184
-0.166242 0.270573 0.861633 207 200 184
-0.163527 0.270793 0.861415 207 200 184
-0.160753 0.270297 0.862171 207 200 184
-0.157999 0.270153 0.862448 207 200 184
-0.155251 0.270141 0.862545 207 200 184
-0.152556 0.270724 0.861833 207 200 184
-0.149868 0.271354 0.861056 208 201 185
-0.147192 0.272061 0.860174 207 200 184
-0.144510 0.272685 0.859406 208 201 185
-0.141838 0.273369 0.858555 208 201 185
-0.139195 0.274259 0.857422 207 200 184
-0.136534 0.274957 0.856552 209 202 186
-0.133929 0.276047 0.855148 209 202 186
-0.131318 0.277034 0.853883 209 202 186
-0.128640 0.277520 0.853302 210 203 187
-0.125970 0.278053 0.852656 210 203 187
-0.123313 0.278651 0.851922 210 202 189
-0.120647 0.279182 0.851278 211 203 190
-0.118014 0.279891 0.850393 211 203 190
-0.115329 0.280290 0.849929 212 204 191
-0.112564 0.280243 0.850076 211 203 190
-0.109783 0.280140 0.850298 212 204 191
-0.106969 0.279895 0.850714 212 205 189
-0.104140 0.279610 0.851185 213 205 192
-0.101287 0.279249 0.851761 213 205 192
-0.098536 0.279407 0.851627 214 206 193
-0.095848 0.279864 0.851085 212 206 192
-0.093261 0.280772 0.849927 212 206 192
-0.090514 0.280958 0.849756 213 207 193
-0.087838 0.281451 0.849165 213 207 191
-0.085101 0.281683 0.848931 212 209 194
-0.082372 0.281959 0.848635 197 195 182
-0.079846 0.283037 0.847245 155 152 145
-0.077079 0.283158 0.847163 124 123 119
-0.074174 0.282764 0.847785 112 112 112
-0.070937 0.281175 0.850040 102 102 104
-0.067715 0.279727 0.852104 97 95 96
-0.065280 0.281145 0.850249 101 100 98
-0.064777 0.289217 0.839290 203 198 192
-0.063314 0.293717 0.833215 231 224 216
-0.060680 0.294151 0.832703 233 226 218
-0.058032 0.294538 0.832256 230 223 215
-0.055240 0.294463 0.832440 232 225 217
-0.052366 0.294145 0.832958 229 222 214
-0.049670 0.294403 0.832686 233 226 218
-0.046901 0.294445 0.832711 232 225 217
-0.044078 0.294338 0.832941 230 223 215
-0.041366 0.294568 0.832707 231 224 216
-0.038606 0.294669 0.832653 231 224 216
-0.035698 0.294361 0.833157 230 223 215
-0.032891 0.294354 0.833249 231 224 216
-0.029972 0.294056 0.833741 230 223 215
-0.027051 0.293773 0.834212 232 225 217
-0.024242 0.293806 0.834251 231 224 216
-0.021551 0.294158 0.833851 231 224 216
-0.018939 0.294712 0.833176 231 224 216
-0.016190 0.294914 0.832983 230 223 215
-0.013517 0.295311 0.832522 231 224 216
-0.010509 0.294891 0.833182 229 222 214
-0.007570 0.294657 0.833587 231 224 216
-0.004734 0.294686 0.833631 232 225 217
-0.001925 0.294788 0.833576 231 224 216
0.000951 0.294744 0.833721 233 226 218
0.003801 0.294769 0.833771 233 226 220
0.006485 0.295178 0.833295 233 228 224
0.009634 0.294557 0.834232 233 228 224
0.012647 0.294258 0.834727 233 228 222
0.015555 0.294205 0.834885 233 226 220
0.018427 0.294238 0.834925 230 222 219
0.021358 0.294158 0.835121 221 216 212
0.024065 0.294553 0.834664 212 207 201
0.026606 0.295285 0.833744 204 199 193
0.029791 0.294710 0.834620 192 187 181
0.032584 0.294940 0.834390 181 176 170
0.035438 0.295053 0.834320 174 169 163
0.038282 0.295192 0.834216 167 162 156
0.041023 0.295534 0.833832 162 157 151
0.043611 0.296168 0.833047 162 157 151
0.045728 0.297675 0.831061 164 161 156
0.049206 0.296640 0.832571 166 163 158
0.052966 0.295122 0.834746 175 172 167
0.056197 0.294602 0.835548 180 177 172
0.059649 0.293709 0.836864 182 178 175
0.064375 0.290594 0.841239 179 175 172
0.215692 0.192786 0.978683 63 64 68
0.218578 0.193979 0.977147 60 61 63
0.222057 0.194370 0.976719 63 65 64
0.225323 0.195043 0.975900 64 66 65
0.229076 0.195074 0.975969 65 67 66
0.231794 0.196457 0.974169 64 68 67
0.235539 0.196503 0.974218 64 69 65
0.239159 0.196714 0.974038 62 67 63
0.243761 0.195689 0.975568 60 65 61
0.248162 0.194940 0.976715 62 63 65
0.252021 0.194887 0.976902 61 61 63
0.256554 0.194010 0.978228 62 62 64
0.261173 0.193051 0.979669 59 59 61
0.265547 0.192413 0.980665 56 57 59
0.269686 0.192076 0.981246 56 57 59
0.273897 0.191667 0.981927 57 58 62
0.276819 0.192797 0.980477 53 54 58
0.281685 0.191636 0.982200 48 47 52
0.285161 0.192119 0.981646 48 47 52
0.288597 0.192648 0.981028 43 44 48
0.292062 0.193143 0.980458 39 40 44
0.295774 0.193357 0.980277 35 35 37
0.297538 0.195773 0.977044 28 28 30
0.300631 0.196671 0.975916 21 21 23
0.302174 0.199285 0.972407 18 16 19
0.305633 0.199753 0.971874 34 34 36
0.307200 0.202292 0.968467 43 43 45
0.308169 0.205448 0.964206 38 38 40
0.311128 0.206420 0.962973 27 27 29
0.314014 0.207462 0.961641 26 25 30
0.316304 0.209128 0.959444 27 26 31
0.317566 0.211860 0.955767 12 12 14
0.317745 0.215691 0.950564 15 16 18
0.317924 0.219473 0.945428 14 13 18
0.319347 0.221924 0.942138 12 11 16
0.319814 0.225325 0.937528 13 12 17
0.320799 0.228157 0.933708 19 18 23
0.321506 0.231235 0.929545 27 26 31
0.322915 0.233573 0.926407 27 26 31
0.323803 0.236402 0.922587 23 22 27
0.324867 0.239024 0.919055 18 17 22
0.325259 0.242274 0.914648 15 14 19
0.326861 0.244307 0.911932 15 14 19
0.328331 0.246446 0.909067 14 11 18
0.330187 0.248191 0.906750 14 11 18
0.331819 0.250130 0.904162 15 13 18
0.331309 0.254078 0.898779 17 15 18
0.332588 0.256297 0.895801 18 16 17
0.334822 0.257598 0.894098 25 25 25
0.336243 0.259643 0.891361 25 25 25
0.337827 0.261515 0.888862 31 31 31
0.338904 0.263832 0.885744 36 36 36
0.340642 0.265523 0.883496 34 34 34
0.341757 0.267761 0.880488 50 50 48
0.343817 0.269126 0.878692 35 35 33
0.345578 0.270747 0.876541 43 43 41
0.346807 0.272823 0.873756 36 36 34
0.348065 0.274851 0.871036 41 42 37
0.350226 0.276070 0.869443 39 40 35
0.352086 0.277539 0.867500 45 46 41
0.354236 0.278745 0.865924 51 52 47
0.356485 0.279857 0.864480 40 41 36
0.359630 0.280195 0.864112 38 38 36
0.361758 0.281396 0.862542 51 51 49
0.364778 0.281838 0.862032 43 43 41
0.366072 0.283721 0.859510 45 45 45
0.371474 0.282173 0.861774 31 31 31
0.372491 0.284271 0.858953 30 30 30
-0.393726 0.225806 0.920416 10 8 13
-0.391362 0.225014 0.921574 12 10 15
-0.389419 0.223006 0.924382 10 8 13
-0.386944 0.222447 0.925223 11 9 14
-0.383967 0.223311 0.924132 11 9 14
-0.381097 0.223878 0.923445 10 8 13
-0.378729 0.222951 0.924786 10 8 13
-0.376212 0.222437 0.925567 10 8 13
-0.373514 0.222452 0.925631 10 8 13
-0.371180 0.221319 0.927253 10 8 13
-0.368361 0.221675 0.926853 10 8 13
-0.365731 0.221418 0.927286 10 8 13
-0.362773 0.222215 0.926286 10 8 13
-0.359992 0.222437 0.926068 10 8 13
-0.357049 0.223202 0.925112 11 9 14
-0.354039 0.224212 0.923822 12 10 15
-0.351291 0.224324 0.923754 15 15 17
-0.348512 0.224537 0.923549 38 36 39
-0.345715 0.224808 0.923264 31 27 26
-0.342952 0.224949 0.923157 83 75 73
-0.340275 0.224755 0.923504 113 105 102
-0.337500 0.224915 0.923371 71 63 60
-0.334995 0.224005 0.924694 49 41 38
-0.332428 0.223290 0.925752 29 23 23
-0.329734 0.223049 0.926164 31 27 28
-0.327153 0.222306 0.927261 38 36 41
-0.324590 0.221437 0.928529 28 27 33
-0.321924 0.220962 0.929262 22 21 27
-0.319131 0.221015 0.929276 30 29 34
-0.316387 0.220827 0.929618 37 37 39
-0.313581 0.220900 0.929604 31 30 35
-0.310940 0.220164 0.930693 21 20 26
-0.308272 0.219499 0.931686 17 16 22
-0.305660 0.218498 0.933137 14 13 19
-0.302856 0.218423 0.933325 14 12 17
-0.299921 0.219019 0.932600 16 14 19
-0.297077 0.219127 0.932541 19 17 22
-0.294215 0.219317 0.932369 25 23 28
-0.291290 0.219864 0.931710 38 37 42
-0.288407 0.220166 0.931386 30 29 34
-0.285571 0.220172 0.931465 28 27 33
-0.282607 0.220974 0.930459 23 22 28
-0.279657 0.221707 0.929546 27 25 30
-0.276689 0.222598 0.928419 46 44 47
-0.273575 0.224571 0.925814 42 40 41
-0.270415 0.227012 0.922572 15 15 17
-0.267305 0.229231 0.919630 10 9 14
-0.264650 0.227918 0.921508 13 12 18
-0.262130 0.225310 0.925157 17 16 22
-0.259692 0.221676 0.930205 20 19 25
-0.257276 0.217435 0.936084 18 17 23
-0.254595 0.215311 0.939075 17 16 22
-0.251761 0.214485 0.940292 18 17 23
-0.248812 0.214792 0.939963 18 17 23
-0.245781 0.216038 0.938351 17 16 21
-0.242609 0.219157 0.934180 17 16 21
-0.239616 0.220272 0.932747 16 17 22
-0.228367 0.263255 0.874263 191 189 177
-0.225626 0.264288 0.872933 211 206 187
-0.223022 0.262560 0.875379 210 204 188
-0.220393 0.260888 0.877748 210 202 189
-0.217677 0.261002 0.877676 211 204 188
-0.214952 0.261301 0.877351 210 203 187
-0.212215 0.262015 0.876459 208 201 185
-0.209489 0.262411 0.876000 207 200 184
-0.206760 0.263009 0.875267 206 199 183
-0.204030 0.263859 0.874187 207 200 184
-0.201307 0.264683 0.873143 204 197 181
-0.198588 0.265356 0.872306 204 197 181
-0.195870 0.265708 0.871908 204 197 181
-0.193150 0.265993 0.871602 204 197 181
-0.190431 0.266346 0.871203 205 198 182
-0.187714 0.266754 0.870728 204 197 181
-0.185001 0.267343 0.870005 203 196 180
-0.182300 0.268159 0.868972 205 198 182
-0.179614 0.269238 0.867578 205 198 182
-0.176926 0.270118 0.866457 204 196 183
-0.174235 0.270824 0.865574 206 198 185
-0.171572 0.271946 0.864120 206 199 183
-0.168902 0.272813 0.863016 205 198 182
-0.166224 0.273503 0.862154 206 199 183
-0.163518 0.273752 0.861896 206 199 183
-0.160747 0.273222 0.862708 206 199 183
-0.157995 0.273030 0.863056 207 200 184
-0.155258 0.273068 0.863087 207 200 184
-0.152565 0.273592 0.862453 207 200 184
-0.149886 0.274244 0.861644 207 200 184
-0.147201 0.274815 0.860945 208 201 185
-0.144526 0.275443 0.860168 208 201 185
-0.141863 0.276156 0.859275 208 201 185
-0.139222 0.277004 0.858196 208 201 185
-0.136567 0.277714 0.857306 208 200 187
-0.133980 0.278885 0.855783 209 201 188
-0.131387 0.279947 0.854410 209 201 188
-0.128704 0.280354 0.853934 209 202 186
-0.126030 0.280820 0.853380 210 203 187
-0.123384 0.281449 0.852601 210 204 190
-0.120721 0.281956 0.851989 210 204 190
-0.118094 0.282669 0.851093 211 205 191
-0.115419 0.283089 0.850602 211 205 191
-0.112685 0.283179 0.850562 212 204 191
-0.109900 0.283019 0.850868 212 205 189
-0.107085 0.282739 0.851338 212 204 191
-0.104288 0.282581 0.851640 213 205 192
-0.101438 0.282203 0.852245 213 205 192
-0.098664 0.282219 0.852309 214 207 191
-0.095961 0.282583 0.851894 212 206 190
-0.093356 0.283380 0.850884 210 207 192
-0.090540 0.283241 0.851162 212 208 196
-0.087790 0.283410 0.851015 210 206 194
-0.085000 0.283419 0.851089 185 182 173
-0.082288 0.283764 0.850700 138 137 132
-0.079714 0.284648 0.849569 125 124 120
-0.076867 0.284463 0.849911 113 113 111
-0.073791 0.283440 0.851406 103 105 104
-0.070500 0.281687 0.853907 100 100 102
-0.066988 0.279226 0.857383 102 100 103
-0.064439 0.280284 0.856015 95 93 96
-0.064615 0.290723 0.841721 202 195 189
-0.063654 0.296906 0.833288 232 223 214
-0.060850 0.296747 0.833592 234 225 216
-0.058307 0.297459 0.832695 235 226 217
-0.055480 0.297252 0.833067 234 227 217
-0.052555 0.296756 0.833836 230 223 213
-0.049905 0.297140 0.833392 229 222 212
-0.047237 0.297467 0.833027 232 225 215
-0.044481 0.297535 0.833018 231 224 214
-0.041708 0.297565 0.833063 231 224 214
-0.038977 0.297727 0.832925 230 223 213
-0.036182 0.297714 0.833029 231 224 216
-0.033383 0.297705 0.833129 227 223 214
-0.030425 0.297276 0.833807 228 224 215
-0.027667 0.297408 0.833712 228 223 217
-0.024753 0.297136 0.834174 229 224 218
-0.021923 0.297102 0.834307 232 225 217
-0.019217 0.297397 0.833987 236 229 221
-0.016285 0.297127 0.834447 231 226 220
-0.013477 0.297183 0.834457 231 226 220
-0.010277 0.296297 0.835769 226 221 215
-0.007223 0.295796 0.836549 217 212 208
-0.004176 0.295335 0.837274 202 197 193
-0.001176 0.295011 0.837809 188 183 179
0.001459 0.295542 0.837164 177 172 168
0.004131 0.295986 0.836639 166 161 158
0.006681 0.296698 0.835744 159 155 152
0.009875 0.295985 0.836817 160 156 153
0.012611 0.296296 0.836477 162 158 155
0.015721 0.295809 0.837239 169 165 162
0.018345 0.296369 0.836553 174 168 168
0.021520 0.295777 0.837461 178 174 173
0.024039 0.296560 0.836468 180 179 177
0.026456 0.297540 0.835201 176 175 173
0.029414 0.297417 0.835460 172 170 171
0.032559 0.296939 0.836212 156 154 155
0.035430 0.297017 0.836193 137 135 136
0.038233 0.297233 0.835985 120 118 121
0.169560 0.191556 0.984678 58 59 63
0.173826 0.190722 0.985952 57 58 60
0.177413 0.190933 0.985773 57 58 60
0.180493 0.191903 0.984541 58 59 61
0.185270 0.190366 0.986792 59 60 62
0.190008 0.188924 0.988911 60 61 63
0.193090 0.189909 0.987658 60 61 63
