4.786309 1.831354 2.587114 174 165 148
4.812661 1.828818 2.568628 140 131 114
4.845113 1.828846 2.553658 171 162 145
4.880684 1.830130 2.540346 153 144 127
4.910540 1.828944 2.523576 171 162 145
4.937444 1.826488 2.505032 173 164 147
4.971680 1.827034 2.490514 138 129 112
4.999189 1.824754 2.472125 162 153 138
5.025720 1.822047 2.453134 174 162 148
5.056001 1.820835 2.436102 138 129 114
5.080883 1.817411 2.416100 163 154 139
5.109377 1.815416 2.397959 136 129 113
5.138813 1.813762 2.380225 162 155 139
5.153898 1.806418 2.355070 133 124 109
5.167418 1.798501 2.329222 167 158 143
5.185371 1.792355 2.305698 143 131 117
5.201662 1.785589 2.281414 166 157 140
5.212089 1.776606 2.254363 174 165 148
5.226681 1.769271 2.229457 146 137 120
5.240565 1.761706 2.204312 157 148 133
5.263031 1.757411 2.183277 155 146 131
5.287734 1.753951 2.163269 169 160 145
5.304455 1.747517 2.139605 134 125 110
5.325942 1.742867 2.118146 157 148 133
5.334676 1.733550 2.091053 134 124 112
5.360598 1.730552 2.071624 166 156 144
5.382497 1.726082 2.050418 154 144 132
5.413803 1.724993 2.033214 162 153 138
5.440979 1.722387 2.014175 164 155 140
5.463295 1.718036 1.993070 133 126 110
5.487212 1.714249 1.972618 171 164 148
5.500742 1.706819 1.947971 150 143 127
5.521398 1.701907 1.926247 165 156 141
5.536298 1.695013 1.902290 141 132 117
5.561116 1.691557 1.882238 161 152 137
5.582221 1.686822 1.860747 132 124 111
5.605804 1.682933 1.840196 168 160 147
5.633591 1.680453 1.821185 118 109 94
5.677521 1.683352 1.807995 166 157 142
5.715010 1.684018 1.792265 150 141 126
5.756359 1.685894 1.777743 165 156 141
5.778047 1.681237 1.756171 174 165 150
5.798644 1.676227 1.734234 162 153 136
5.820201 1.671536 1.712640 177 168 151
5.844543 1.667746 1.691984 149 140 123
5.890688 1.670928 1.678467 172 163 146
5.921011 1.668982 1.659599 107 98 83
5.995410 1.669317 1.625947 163 154 137
6.072777 1.670345 1.592632 176 167 150
6.101902 1.667820 1.572887 177 168 151
6.115129 1.660400 1.548403 172 163 146
6.130963 1.653810 1.524766 171 162 145
6.181146 1.657640 1.510980 176 169 151
6.186140 1.647778 1.484275 165 158 140
6.201762 1.641160 1.460665 176 169 153
6.215315 1.633954 1.436559 137 130 114
6.244154 1.631293 1.416613 176 167 152
6.249693 1.621776 1.390505 126 117 102
1.828868 2.533428 5.616302 92 91 89
1.848226 2.523489 5.582906 89 88 86
1.870264 2.517838 5.558749 86 85 83
1.900058 2.523996 5.559865 86 85 83
1.923461 2.520287 5.539821 85 84 82
1.947467 2.517445 5.521619 79 78 76
1.969781 2.512097 5.498074 84 83 81
1.990216 2.504079 5.468875 96 95 93
2.016947 2.505063 5.458761 95 94 92
2.041405 2.502728 5.441586 81 80 78
2.061932 2.494924 5.412868 87 86 84
2.081753 2.486248 5.382347 84 83 81
2.108881 2.487478 5.372648 94 93 91
2.125249 2.474328 5.332790 93 92 90
2.142393 2.462413 5.295595 78 77 75
2.161208 2.452842 5.263355 84 83 81
2.178694 2.441713 5.227920 91 90 86
2.203891 2.440439 5.212998 84 83 79
2.225384 2.434490 5.188367 84 83 79
2.250389 2.432884 5.172722 94 93 89
2.269376 2.423922 5.141891 92 91 87
2.289763 2.416746 5.114775 85 81 78
2.313225 2.413268 5.095269 97 93 90
2.336301 2.409316 5.074785 93 89 86
2.356192 2.401681 5.046777 96 95 91
2.378735 2.397142 5.025107 86 85 80
2.402773 2.394291 5.006867 87 86 81
2.422578 2.386690 4.978984 87 86 81
2.442836 2.379659 4.952284 94 93 89
2.465974 2.375824 4.932056 88 89 84
2.487006 2.369708 4.907233 88 89 84
2.509960 2.365677 4.886611 97 97 95
2.536607 2.365522 4.873749 92 91 87
2.563817 2.365860 4.861829 80 79 75
2.586632 2.361570 4.840640 98 97 93
2.606379 2.354152 4.813232 76 75 73
2.627919 2.348605 4.789564 84 80 77
2.649449 2.343073 4.765934 88 84 81
2.674231 2.340770 4.748687 98 94 91
2.696981 2.336440 4.727431 77 74 69
2.715875 2.328385 4.698864 98 95 90
2.736736 2.322284 4.674159 87 84 79
2.758342 2.316924 4.650916 103 102 97
2.778440 2.310172 4.624973 75 74 69
2.799909 2.304737 4.601611 116 116 108
2.815683 2.294101 4.568187 101 98 91
2.833320 2.285282 4.538337 93 90 83
2.849756 2.275471 4.506624 109 106 97
2.866329 2.265891 4.475409 94 90 81
2.880749 2.254515 4.440810 114 110 101
2.898850 2.246488 4.412682 100 96 87
2.917684 2.239166 4.385936 117 113 102
2.933106 2.228983 4.353785 130 126 115
2.949138 2.219429 4.322888 158 152 140
2.966707 2.211264 4.294672 170 164 152
3.002772 2.173630 4.185658 175 171 162
3.020587 2.166073 4.158814 175 171 160
3.035788 2.156484 4.128223 170 166 155
3.055024 2.150194 4.103815 175 171 160
3.079643 2.148170 4.087327 181 177 166
3.099159 2.142134 4.063408 182 176 164
3.116743 2.134638 4.036823 162 156 144
3.137168 2.129374 4.014369 155 147 136
3.160782 2.126543 3.996377 133 125 112
3.180169 2.120513 3.972536 146 138 125
3.202276 2.116540 3.952453 110 102 89
3.218407 2.108153 3.924368 154 146 133
3.236553 2.101313 3.899123 178 170 157
3.255336 2.094980 3.874821 140 133 117
3.274813 2.089182 3.851505 163 154 137
3.297537 2.085723 3.832394 117 110 94
3.316804 2.079811 3.808895 95 88 72
3.335696 2.073665 3.785001 156 149 133
3.353273 2.066639 3.759569 150 143 127
3.369945 2.059038 3.733155 160 151 136
3.395430 2.057507 3.717467 93 84 69
3.421958 2.056637 3.702908 170 161 146
3.448531 2.055740 3.688264 181 169 153
3.470836 2.051949 3.668535 179 170 155
3.491761 2.047240 3.647207 152 145 129
3.510831 2.041326 3.623796 89 80 65
3.528357 2.034437 3.598723 174 165 148
3.542743 2.025572 3.570285 108 99 82
3.560299 2.018806 3.545498 127 118 103
3.580326 2.013645 3.523484 136 127 112
3.599789 2.008146 3.500906 145 136 121
3.621817 2.004266 3.481087 134 127 111
3.647796 2.002821 3.465381 170 163 147
3.673741 2.001312 3.449532 128 121 105
3.695897 1.997455 3.429712 168 161 145
3.720016 1.994777 3.411858 171 164 148
3.748955 1.994960 3.398748 167 160 144
3.773146 1.992255 3.380792 184 177 161
3.796681 1.989138 3.362139 146 139 123
3.816741 1.983974 3.340100 170 160 148
3.837608 1.979292 3.318863 121 112 97
3.861474 1.976342 3.300463 154 145 130
3.883583 1.972371 3.280383 168 159 144
3.908483 1.969976 3.262856 183 174 159
3.935525 1.968758 3.247206 129 120 105
3.960915 1.966571 3.229960 160 151 136
3.981939 1.961936 3.208765 151 142 127
3.999332 1.955312 3.184401 168 159 144
4.017255 1.949012 3.160584 169 160 145
4.037054 1.943758 3.138449 131 121 109
4.067082 1.944017 3.125014 168 160 147
4.089154 1.939964 3.104755 140 132 119
4.108994 1.934728 3.082644 164 154 142
4.126309 1.928180 3.058504 150 141 126
4.142150 1.920898 3.033257 167 158 143
4.162718 1.916107 3.011895 127 119 106
4.183608 1.911490 2.990806 171 163 150
4.208088 1.908710 2.972534 134 125 110
4.228740 1.903970 2.951257 175 168 152
4.250793 1.899942 2.931066 186 179 163
4.272486 1.895732 2.910598 157 148 131
4.294422 1.891642 2.890309 166 157 140
4.312563 1.885682 2.867224 146 137 120
4.329410 1.879116 2.843258 160 148 132
4.345862 1.872392 2.819092 134 122 108
4.364598 1.866803 2.796634 155 143 129
4.379383 1.859344 2.771451 175 163 149
4.393840 1.851777 2.746155 156 144 130
4.409315 1.844736 2.721671 163 151 137
4.429136 1.839769 2.700228 136 124 110
4.450315 1.835445 2.679720 181 169 155
4.476541 1.833450 2.662552 158 149 132
4.502861 1.831468 2.645369 173 166 148
4.526017 1.828015 2.626070 169 160 143
4.550157 1.824997 2.607373 149 140 123
4.569789 1.819940 2.585797 173 164 147
4.592731 1.816369 2.566309 154 145 130
4.617541 1.813616 2.547947 173 164 149
4.648571 1.813576 2.533314 149 139 127
4.674267 1.811152 2.515341 175 166 149
4.699003 1.808287 2.496739 159 150 133
4.731679 1.808822 2.482740 164 155 138
4.768100 1.810892 2.470746 160 151 134
4.794097 1.808452 2.452592 162 153 136
4.818354 1.805252 2.433396 123 114 97
4.850657 1.805409 2.418646 164 155 140
4.877883 1.803394 2.400959 138 129 114
4.903824 1.800817 2.382500 144 135 120
4.933981 1.799949 2.366247 147 138 123
4.961551 1.797980 2.348512 133 124 109
4.987103 1.795163 2.329646 159 150 135
5.013127 1.792517 2.310976 116 107 92
5.028850 1.785730 2.286999 171 162 145
5.041485 1.777751 2.261549 170 158 142
5.058382 1.771502 2.238336 166 154 138
5.074779 1.765083 2.214942 168 160 141
5.086941 1.757043 2.189566 128 119 102
5.100853 1.749730 2.165148 164 155 138
5.114543 1.742372 2.140723 121 112 97
5.136682 1.738278 2.120332 157 147 135
5.160127 1.734679 2.100537 126 118 105
5.176305 1.728333 2.077425 183 176 160
5.196467 1.723505 2.056163 180 173 157
5.209219 1.715930 2.031647 131 121 109
5.232755 1.712382 2.011936 159 149 137
5.252200 1.707324 1.990444 147 137 125
5.284213 1.706859 1.974309 166 156 144
5.310379 1.704227 1.955609 171 161 149
5.330087 1.699250 1.934193 165 155 143
5.352961 1.695415 1.914089 158 148 136
5.372290 1.690314 1.892548 126 116 104
5.390865 1.684958 1.870736 169 157 143
5.405544 1.678249 1.847438 153 144 127
5.431346 1.675450 1.828498 165 156 141
5.450527 1.670338 1.807000 170 162 149
5.473358 1.666494 1.786896 161 153 140
5.499925 1.663924 1.768157 158 150 137
5.547295 1.668403 1.756930 147 138 123
5.581427 1.668301 1.740690 170 161 146
5.619732 1.669548 1.725795 165 156 141
5.642529 1.665552 1.705335 167 158 143
5.659317 1.659561 1.682806 133 124 109
5.680070 1.654898 1.661669 170 161 146
5.702774 1.650877 1.641192 121 112 97
5.752157 1.655532 1.629449 176 167 152
5.779137 1.652833 1.610205 152 143 128
5.819186 1.654313 1.595064 184 175 160
5.849040 1.652466 1.576557 138 129 112
5.896504 1.656175 1.563400 180 171 154
5.927485 1.654588 1.545001 179 170 153
5.958291 1.652912 1.526466 153 144 127
5.976489 1.647277 1.504147 185 176 159
5.992209 1.640891 1.481151 148 139 122
6.039803 1.644332 1.467278 179 170 153
6.047145 1.635375 1.441913 126 117 100
6.061364 1.628563 1.418578 176 169 153
6.076524 1.622065 1.395570 141 134 118
6.106761 1.620118 1.376639 167 160 144
6.123040 1.613978 1.353984 158 149 134
1.802408 2.516203 5.510719 83 82 78
1.822329 2.507817 5.480973 84 83 79
1.843924 2.502151 5.457024 78 77 73
1.871571 2.505798 5.452770 96 95 91
1.894364 2.501882 5.432495 86 85 81
1.918150 2.499433 5.415300 85 84 80
1.939831 2.493837 5.391481 96 95 91
1.959762 2.485741 5.362431 82 81 77
1.986308 2.487195 5.353386 96 96 94
2.009894 2.484318 5.335254 93 92 90
2.029444 2.475793 5.305344 79 78 74
2.048562 2.466783 5.274467 93 92 88
2.074775 2.467499 5.263792 95 94 90
2.092291 2.456464 5.228765 88 87 83
2.109863 2.445673 5.194306 91 90 86
2.129886 2.438237 5.166813 91 90 86
2.146938 2.427061 5.131666 85 84 80
2.169834 2.423472 5.112131 92 91 87
2.190109 2.416579 5.085834 95 94 90
2.213845 2.414033 5.068429 102 101 97
2.232749 2.405534 5.038891 105 104 100
2.251635 2.397114 5.009552 82 78 75
2.274712 2.393794 4.990584 102 98 95
2.297383 2.389970 4.970588 93 89 86
2.316705 2.382231 4.942693 85 84 80
2.337851 2.376673 4.919217 92 91 87
2.361696 2.374216 4.901977 105 104 100
2.381307 2.366950 4.875091 93 92 88
2.400171 2.358921 4.846708 94 93 88
2.422093 2.354338 4.825228 88 87 83
2.442610 2.348233 4.800726 93 92 88
2.464367 2.343502 4.778965 94 93 89
2.488897 2.341728 4.763056 96 92 89
2.514489 2.341016 4.749217 92 89 84
2.536645 2.336650 4.728150 92 89 84
2.555232 2.328612 4.699879 84 81 76
2.576694 2.323581 4.677530 90 87 82
2.598666 2.319077 4.656218 95 90 86
2.622430 2.316365 4.638397 95 90 86
2.643310 2.310773 4.614967 94 89 83
2.660674 2.301778 4.584954 89 84 78
2.680845 2.295589 4.560412 100 93 87
2.700858 2.289288 4.535674 80 75 69
2.718778 2.281048 4.507229 108 104 95
2.856263 2.189665 4.220757 172 164 151
2.871671 2.180185 4.190497 171 163 150
2.889412 2.172786 4.164173 181 172 157
2.903964 2.162766 4.133011 173 164 149
2.916409 2.151102 4.098861 162 156 144
2.935023 2.144666 4.074457 123 117 105
2.955700 2.139958 4.053264 112 106 94
2.974897 2.134063 4.029894 111 105 93
2.995591 2.129399 4.008800 110 104 92
3.020889 2.128404 3.994414 131 123 110
3.042994 2.124837 3.975308 151 143 130
3.061477 2.118432 3.951042 156 146 134
3.082575 2.114090 3.930534 165 157 144
3.106614 2.112005 3.914104 171 164 148
3.126605 2.106808 3.892050 122 113 98
3.148013 2.102696 3.871954 188 179 164
3.164417 2.094849 3.845178 171 161 149
3.180971 2.087178 3.818756 79 69 57
3.198224 2.080080 3.793393 173 164 149
3.217964 2.074841 3.771357 176 168 149
3.241031 2.072018 3.753599 168 159 142
3.259257 2.065715 3.729700 189 180 165
3.276768 2.058941 3.705001 148 141 125
3.293375 2.051577 3.679299 166 159 143
3.310658 2.044739 3.654551 110 101 86
3.331848 2.040644 3.634600 148 139 124
3.354528 2.037569 3.616414 205 196 181
3.378659 2.035461 3.599883 148 139 124
3.399854 2.031343 3.579873 136 129 113
3.420940 2.027152 3.559738 142 133 118
3.440207 2.021756 3.537546 174 165 150
3.458115 2.015490 3.513886 104 95 78
3.473033 2.007309 3.487008 175 166 149
3.489916 2.000466 3.462435 147 138 123
3.510222 1.995860 3.441663 127 118 103
3.530724 1.991385 3.421118 131 122 107
3.553015 1.988046 3.402475 138 130 117
3.577946 1.986345 3.386553 128 121 105
3.603671 1.985099 3.371356 156 149 133
3.625098 1.981161 3.351672 163 156 140
3.647365 1.977733 3.332826 165 158 142
3.675850 1.978062 3.320139 174 167 151
3.698031 1.974531 3.301085 135 128 112
3.720453 1.971134 3.282242 158 151 135
3.740232 1.966161 3.260831 102 93 78
3.762601 1.962723 3.241911 178 169 154
3.786283 1.960039 3.224199 174 165 150
3.808051 1.956225 3.204655 163 154 139
3.832417 1.953898 3.187483 176 167 152
3.858118 1.952304 3.171453 160 151 136
3.882182 1.949744 3.153863 167 158 143
3.900824 1.944121 3.131413 150 140 128
3.919195 1.938368 3.108779 165 156 141
3.936950 1.932299 3.085671 107 98 83
3.955777 1.926846 3.063549 148 139 124
3.983015 1.925991 3.048584 143 135 122
4.003862 1.921635 3.028161 170 162 149
4.022135 1.915901 3.005620 170 161 146
4.037324 1.908549 2.980619 154 145 130
4.052987 1.901495 2.956114 177 168 153
4.073141 1.896838 2.935293 156 148 135
4.093051 1.892063 2.914299 158 151 135
4.118364 1.890090 2.897536 159 152 136
4.140677 1.886546 2.878388 124 115 100
4.161439 1.882204 2.858040 142 133 118
4.182594 1.878063 2.837993 141 132 115
4.205264 1.874683 2.819073 154 145 128
4.224130 1.869396 2.797334 152 143 126
4.241161 1.863217 2.774302 155 144 126
4.257971 1.856958 2.751182 167 156 138
4.276555 1.851596 2.729393 134 122 106
4.291896 1.844680 2.705375 172 160 144
4.306010 1.837212 2.680603 175 163 147
4.323387 1.831351 2.658177 146 134 118
4.341855 1.826031 2.636548 162 150 134
4.360748 1.820929 2.615244 139 127 111
4.386700 1.819143 2.598631 167 158 143
4.414288 1.818084 2.583006 161 152 135
4.438603 1.815474 2.565172 126 117 100
4.458954 1.811027 2.544764 168 159 142
4.478226 1.806093 2.523688 154 145 128
4.500307 1.802440 2.504385 149 140 123
4.521528 1.798395 2.484539 161 152 137
4.551573 1.798280 2.470039 146 137 122
4.577126 1.796124 2.452718 162 153 136
4.599337 1.792471 2.433354 129 120 103
4.627952 1.791608 2.417717 170 161 144
4.664756 1.794252 2.406700 154 145 128
4.690502 1.792041 2.389157 178 169 152
4.711861 1.787928 2.369081 165 156 139
4.743764 1.788294 2.354866 142 133 118
4.771623 1.786893 2.338283 157 148 133
4.797375 1.784572 2.320469 144 135 120
4.824895 1.782962 2.303542 162 153 138
4.851882 1.781098 2.286250 143 134 119
4.875895 1.777981 2.267331 146 137 122
4.898432 1.774247 2.247617 169 160 145
4.913078 1.767307 2.223871 146 137 120
4.926322 1.759838 2.199507 148 136 120
4.943750 1.754087 2.177325 127 115 99
4.956968 1.746684 2.153131 170 162 143
4.972055 1.740060 2.129942 163 154 137
4.987128 1.733463 2.106826 182 173 156
4.999557 1.725867 2.082540 130 121 106
5.023148 1.722639 2.063553 167 158 143
5.047832 1.719820 2.045038 164 155 140
5.066207 1.714573 2.023626 167 158 143
5.083865 1.709066 2.001926 158 149 134
5.100197 1.703077 1.979685 181 172 157
5.123760 1.699823 1.960647 168 159 144
5.138680 1.693337 1.937871 129 120 105
5.170083 1.692983 1.922148 182 173 158
5.199246 1.691757 1.905373 172 163 148
5.221887 1.688110 1.885819 158 149 134
5.244139 1.684315 1.866092 177 168 153
5.264544 1.679850 1.845614 135 126 111
5.285774 1.675683 1.825471 164 152 136
5.299489 1.668840 1.802400 137 128 111
5.325047 1.666224 1.783962 167 158 143
5.346161 1.662024 1.763794 176 168 155
5.374013 1.660181 1.746144 160 152 139
5.401279 1.658106 1.728208 165 157 144
5.446507 1.662204 1.716726 141 132 117
5.480998 1.662516 1.701153 174 165 150
5.515481 1.662768 1.685442 129 120 105
5.536511 1.658409 1.664925 178 169 154
5.550954 1.651833 1.642158 151 142 127
5.570733 1.647072 1.621261 172 163 148
5.591887 1.642776 1.600839 120 111 96
5.643516 1.648550 1.590386 174 165 150
5.669368 1.645737 1.571332 140 131 116
5.706003 1.646424 1.555656 175 166 151
5.734424 1.644387 1.537267 167 158 141
5.776313 1.646665 1.522954 170 161 144
5.805982 1.644947 1.504748 168 159 142
5.834276 1.642761 1.486057 103 94 77
5.853738 1.637754 1.464716 178 169 152
5.871973 1.632372 1.443043 183 174 157
5.914993 1.634749 1.428437 164 155 138
5.922994 1.626167 1.403859 162 153 136
5.937441 1.619628 1.381178 178 171 155
5.956974 1.614677 1.359937 188 181 165
5.981097 1.611135 1.339936 152 145 129
5.987244 1.602134 1.315222 182 173 158
1.775490 2.497347 5.404119 98 97 93
1.795355 2.489568 5.375965 83 82 78
1.815440 2.482234 5.348773 78 77 73
1.842029 2.485048 5.342806 83 82 78
1.864780 2.481805 5.324152 85 84 80
1.886404 2.476841 5.301908 87 86 82
1.907891 2.471692 5.279284 93 92 88
1.928049 2.464623 5.252693 80 79 74
1.952997 2.464534 5.240551 93 94 89
1.975832 2.461328 5.221943 91 92 87
1.995324 2.453400 5.193612 96 95 91
2.013994 2.444431 5.163174 87 86 82
2.038029 2.442915 5.148045 85 84 80
2.055665 2.432695 5.115104 88 87 82
2.073556 2.422968 5.083222 94 93 88
2.092851 2.415224 5.055426 84 83 78
2.110048 2.404845 5.022313 95 94 90
2.133469 2.402595 5.005719 111 110 106
2.153494 2.395998 4.980321 93 92 88
2.174932 2.391223 4.958621 103 102 98
2.193208 2.382556 4.929097 87 86 82
2.211911 2.374516 4.900874 105 101 98
2.233255 2.369751 4.879240 117 113 110
2.254429 2.364795 4.857230 84 80 77
2.274709 2.358803 4.833164 97 93 92
2.294806 2.352638 4.808770 81 77 74
2.315773 2.347519 4.786468 98 94 91
2.334942 2.340376 4.760172 90 87 82
2.353974 2.333144 4.733729 106 103 98
2.372197 2.325082 4.705682 88 85 80
2.390198 2.316861 4.677359 117 112 108
2.412955 2.313897 4.659369 84 79 75
2.632952 2.225603 4.342436 174 166 155
2.652085 2.219415 4.318448 172 164 151
2.725169 2.168732 4.161960 156 147 132
2.746141 2.164613 4.142053 154 145 130
2.766571 2.160015 4.121257 128 119 104
2.784176 2.152956 4.095911 102 93 78
2.801882 2.146040 4.070860 107 98 83
2.820711 2.140142 4.047713 103 94 79
2.838894 2.133729 4.023640 174 165 148
2.855812 2.126295 3.997722 183 174 159
2.875722 2.121419 3.976508 150 140 128
2.897669 2.118241 3.958393 153 146 130
2.918611 2.114224 3.938745 150 143 127
2.940079 2.110632 3.919868 143 136 120
2.964267 2.109218 3.904909 136 127 112
2.987180 2.106741 3.888012 165 156 141
3.006174 2.101140 3.865499 173 161 147
3.026898 2.096921 3.845470 125 117 104
3.051407 2.095638 3.830673 162 152 140
3.071454 2.090877 3.809670 137 128 113
3.092286 2.086725 3.789753 150 141 126
3.107117 2.078044 3.761844 143 133 121
3.124314 2.071214 3.737242 148 138 126
3.142286 2.065007 3.713762 161 152 137
3.161111 2.059464 3.691469 150 141 124
3.184156 2.057024 3.674597 117 108 91
3.202574 2.051211 3.651850 152 143 126
3.219510 2.044366 3.627336 149 140 125
3.233512 2.035482 3.599337 129 122 106
3.249298 2.027937 3.573696 155 147 134
3.270186 2.024016 3.554303 137 129 116
3.290270 2.019536 3.533955 158 149 134
3.312174 2.016313 3.515752 115 106 91
3.333272 2.012527 3.496586 185 176 161
3.354655 2.008930 3.477735 173 164 149
3.372592 2.003016 3.454974 160 151 136
3.390823 1.997327 3.432615 171 162 147
3.406955 1.990282 3.408005 106 97 80
3.423641 1.983647 3.384117 169 160 145
3.443534 1.979135 3.363784 125 116 101
3.465262 1.975812 3.345424 170 163 147
3.487074 1.972530 3.327125 186 176 164
3.509753 1.969786 3.309700 106 97 82
3.533544 1.967720 3.293369 127 118 103
3.554527 1.963873 3.274110 121 112 97
3.575632 1.960099 3.254966 160 151 136
3.601147 1.959025 3.240191 153 144 129
3.623274 1.955843 3.221980 169 159 147
3.644693 1.952221 3.203050 129 119 107
3.662299 1.946306 3.180447 178 171 155
3.682860 1.942177 3.160713 128 121 105
3.706517 1.939877 3.143886 156 149 133
3.728261 1.936429 3.125221 134 127 111
3.750507 1.933265 3.106994 130 123 107
3.774147 1.930891 3.089997 157 149 136
3.797093 1.928095 3.072319 146 138 125
3.814641 1.922212 3.049821 161 153 140
3.832084 1.916298 3.027298 141 132 117
3.851140 1.911315 3.006235 174 165 150
3.869326 1.905862 2.984463 144 135 120
3.892467 1.903162 2.966922 167 160 144
3.912994 1.899012 2.947154 166 159 143
3.933004 1.894582 2.926963 148 139 124
3.947364 1.887111 2.902181 154 145 130
3.962881 1.880310 2.878451 113 104 89
3.984572 1.876830 2.859733 153 144 129
4.004749 1.872543 2.839804 144 135 120
4.029543 1.870678 2.823475 174 165 150
4.052144 1.867641 2.805384 173 164 147
4.074121 1.864267 2.786786 145 136 119
4.094026 1.859823 2.766609 176 164 148
4.115261 1.856060 2.747432 102 90 74
4.135030 1.851553 2.727171 172 160 144
4.152198 1.845749 2.705042 182 171 153
4.167671 1.839125 2.681758 172 161 141
4.183351 1.832640 2.658709 175 164 146
4.197899 1.825633 2.634951 155 144 126
4.211560 1.818236 2.610680 174 163 145
4.227849 1.812159 2.588318 141 130 112
4.247632 1.807790 2.568381 152 141 123
4.265866 1.802687 2.547424 163 152 134
4.290461 1.800615 2.530694 155 146 131
4.317570 1.799700 2.515536 148 139 122
4.342565 1.797753 2.498915 166 157 140
4.361680 1.793048 2.478491 161 152 135
4.379536 1.787772 2.457299 168 159 142
4.402040 1.784641 2.439031 147 138 121
4.423187 1.780881 2.419902 170 161 144
4.450999 1.780129 2.404799 165 156 139
4.476840 1.778448 2.388411 136 127 110
4.501076 1.776019 2.370998 157 148 131
4.528250 1.774870 2.355248 164 155 138
4.559232 1.775357 2.341599 145 136 119
4.587104 1.774424 2.326035 164 155 138
4.607991 1.770419 2.306443 151 142 125
4.637280 1.770034 2.291514 157 148 133
4.662575 1.767891 2.274278 150 141 126
4.688568 1.766019 2.257359 153 144 127
4.714631 1.764147 2.240408 173 164 147
4.738703 1.761411 2.222335 141 132 117
4.764923 1.759552 2.205340 161 152 137
4.787807 1.756283 2.186557 140 131 116
4.800054 1.748627 2.162342 164 155 140
4.812665 1.741167 2.138422 180 168 152
4.833375 1.737039 2.118620 170 158 142
4.847105 1.730097 2.095407 176 168 149
4.859815 1.722783 2.071790 133 124 107
4.876779 1.717205 2.050302 169 160 143
4.889386 1.709924 2.026812 127 118 103
4.911096 1.706261 2.007648 155 146 131
4.932943 1.702647 1.988534 143 134 119
4.951899 1.697906 1.968099 176 167 152
4.970388 1.692993 1.947478 202 193 178
4.986867 1.687322 1.925999 127 118 103
5.010534 1.684407 1.907691 168 159 144
5.026706 1.678644 1.886137 137 128 113
5.054737 1.677358 1.869648 184 175 160
5.081045 1.675393 1.852358 167 158 143
5.106092 1.672935 1.834484 161 152 137
5.128915 1.669636 1.815660 171 162 147
5.145663 1.664103 1.794383 126 117 102
5.168060 1.660645 1.775380 177 165 149
5.185274 1.655304 1.754341 143 134 117
5.209877 1.652635 1.736176 171 162 147
5.229908 1.648316 1.716240 165 157 144
5.258603 1.647075 1.699543 122 114 101
5.283979 1.644628 1.681540 159 152 136
5.324390 1.647431 1.668936 138 129 114
5.359198 1.648196 1.654126 174 165 150
5.397623 1.650152 1.640444 147 138 123
5.417230 1.645562 1.620059 179 170 155
5.428890 1.638261 1.596975 177 168 153
5.451918 1.634860 1.577810 141 132 117
5.474493 1.631299 1.558474 172 163 148
5.518619 1.634962 1.546157 151 142 127
5.544522 1.632452 1.527753 180 171 156
5.581872 1.633717 1.512926 143 134 119
5.607658 1.631106 1.494334 162 153 138
5.643406 1.631739 1.478756 109 100 85
5.673427 1.630448 1.461307 181 172 157
5.703908 1.629273 1.443912 139 130 115
5.720739 1.623674 1.422437 183 174 159
5.739533 1.618719 1.401568 141 132 117
5.787274 1.622965 1.388920 191 182 167
5.796637 1.614997 1.365336 193 184 169
5.808298 1.607797 1.342493 111 104 88
5.828249 1.603217 1.321971 177 170 154
5.853067 1.600151 1.302750 144 137 121
5.853179 1.589462 1.277065 179 170 155
1.748464 2.477421 5.297707 86 85 81
1.768999 2.471422 5.273549 86 85 81
1.789379 2.465228 5.249005 97 96 92
1.815063 2.467372 5.241692 85 84 80
1.836506 2.462807 5.220501 96 95 91
1.856728 2.456400 5.195526 94 93 89
1.877733 2.451226 5.173100 101 100 96
1.898347 2.445500 5.149552 100 99 95
1.922350 2.444748 5.136175 84 83 79
1.944549 2.441312 5.117298 88 87 83
1.962413 2.431713 5.085885 85 84 80
1.980707 2.422858 5.056027 103 102 98
2.003458 2.420273 5.038905 96 95 90
2.020760 2.410224 5.006695 111 110 105
2.038531 2.400957 4.976114 97 96 91
2.057648 2.393605 4.949428 100 99 94
2.074058 2.382783 4.915814 99 98 93
2.095831 2.379068 4.896480 108 107 102
2.114687 2.371613 4.869677 97 96 91
2.134350 2.365257 4.845094 105 102 97
2.151345 2.355626 4.814023 83 80 75
2.169571 2.347644 4.786273 89 86 81
2.189525 2.341856 4.762896 106 103 98
2.207115 2.333262 4.734001 100 97 92
2.225984 2.326293 4.708345 98 95 90
2.242708 2.316869 4.677897 100 95 91
2.261032 2.309426 4.651378 89 84 80
2.306351 2.276704 4.551813 124 117 109
2.499411 2.194163 4.262637 180 171 156
2.516867 2.186986 4.237170 176 167 152
2.535677 2.181196 4.214343 160 151 136
2.555303 2.176231 4.193077 142 133 118
2.577039 2.173303 4.175630 122 113 96
2.597337 2.168992 4.155593 111 102 85
2.615686 2.162858 4.132171 128 116 102
2.633125 2.155921 4.107282 145 133 119
2.649708 2.148254 4.081075 148 136 120
2.664361 2.138902 4.051797 172 160 144
2.685061 2.135105 4.032787 148 139 124
2.707177 2.132569 4.016087 162 153 138
2.725589 2.126729 3.993331 152 143 128
2.743383 2.120383 3.969673 179 170 155
2.762839 2.115523 3.948742 145 136 121
2.781940 2.110374 3.927295 171 162 147
2.800603 2.104875 3.905226 180 171 154
2.820726 2.100634 3.885442 154 145 128
2.843285 2.098433 3.869325 158 149 132
2.864832 2.095362 3.851630 155 146 129
2.886994 2.092779 3.834796 160 151 134
2.910104 2.090941 3.819272 159 150 133
2.929976 2.086456 3.799028 153 141 125
2.949152 2.081423 3.777820 182 170 154
2.971794 2.079151 3.761493 156 146 134
2.997543 2.079285 3.749378 147 137 125
3.018970 2.075986 3.731200 180 171 156
3.040767 2.072961 3.713491 132 123 108
3.054805 2.063992 3.685422 129 119 107
3.071658 2.057241 3.661258 182 172 160
3.089349 2.051167 3.638294 143 134 119
3.107880 2.045753 3.616494 164 155 140
3.130504 2.043384 3.599942 161 149 133
3.149023 2.037984 3.578181 106 97 80
3.165434 2.031080 3.553866 188 179 164
3.177546 2.021133 3.524405 145 138 122
3.192399 2.013242 3.498498 140 132 119
3.212621 2.009211 3.479166 132 124 111
3.231512 2.004249 3.458262 178 170 157
3.252126 2.000501 3.439411 191 183 170
3.272046 1.996270 3.419748 124 114 102
3.293161 1.992862 3.401460 164 155 140
3.310460 1.986856 3.378849 168 156 142
3.328907 1.981655 3.357595 136 127 112
3.344780 1.974758 3.333555 177 168 153
3.361256 1.968307 3.310284 94 85 70
3.381641 1.964461 3.291312 187 180 164
3.403424 1.961525 3.273823 168 161 145
3.425516 1.958773 3.256622 140 131 116
3.447037 1.955635 3.238780 187 178 163
3.468145 1.952223 3.220486 161 152 137
3.487435 1.947654 3.200325 168 159 144
3.507931 1.943850 3.181397 108 99 84
3.533759 1.943355 3.167750 164 155 140
3.554684 1.939785 3.149170 152 142 130
3.575027 1.935853 3.130012 173 163 151
3.591386 1.929503 3.107037 155 148 132
3.608995 1.923942 3.085333 176 169 153
3.630316 1.920624 3.067160 159 152 136
3.650449 1.916591 3.047866 165 158 142
3.670995 1.912803 3.028951 157 150 134
3.692373 1.909498 3.010781 160 152 139
3.714562 1.906654 2.993314 167 159 146
3.732520 1.901358 2.972071 143 135 124
3.749798 1.895695 2.950283 171 162 147
3.767878 1.890511 2.929246 161 152 137
3.786140 1.885448 2.908408 156 147 132
3.809541 1.883271 2.891939 167 158 143
3.828872 1.878812 2.872018 145 136 121
3.848926 1.874758 2.852711 153 144 129
3.863467 1.867695 2.828921 151 142 127
3.879241 1.861345 2.806229 165 156 141
3.898855 1.857097 2.786674 158 149 132
3.918076 1.852644 2.766820 176 167 150
3.944638 1.852092 2.752683 149 137 121
3.968596 1.850119 2.736433 167 155 139
3.989342 1.846440 2.717679 182 170 154
4.010270 1.842850 2.699052 126 114 98
4.029696 1.838483 2.679302 166 154 138
4.048176 1.833635 2.658871 179 167 151
4.064258 1.827583 2.636737 134 123 105
4.079957 1.821367 2.614398 176 165 147
4.094973 1.814840 2.591654 168 157 139
4.108967 1.807841 2.568282 143 132 114
4.122838 1.800825 2.544927 152 141 123
4.137896 1.794434 2.522482 151 140 122
4.157746 1.790412 2.503348 155 144 126
4.175685 1.785466 2.482945 98 87 69
4.199781 1.783493 2.466625 178 169 154
4.224687 1.781880 2.450768 124 115 98
4.248350 1.779645 2.434038 175 166 149
4.269403 1.776160 2.415597 164 155 138
4.286044 1.770606 2.394376 140 129 111
4.307440 1.767281 2.376152 168 160 141
4.328248 1.763678 2.357549 141 132 115
4.354816 1.762708 2.342417 162 153 136
4.378910 1.760572 2.325712 164 155 138
4.403877 1.758807 2.309465 131 122 105
4.430890 1.757930 2.294340 157 148 131
4.459172 1.757578 2.279848 171 162 145
4.484347 1.755803 2.263477 144 135 118
4.505689 1.752313 2.244884 153 144 127
4.534673 1.752155 2.230513 174 165 150
4.558146 1.749555 2.213006 154 145 130
4.581191 1.746752 2.195224 162 153 136
4.606928 1.745087 2.178843 110 101 84
4.630757 1.742579 2.161383 148 139 122
4.655088 1.740264 2.144139 145 136 121
4.676207 1.736580 2.125193 162 153 138
4.689279 1.729534 2.102154 169 160 145
4.703259 1.722904 2.079664 159 147 131
4.724203 1.719176 2.060701 165 153 137
4.741628 1.714006 2.040011 141 132 115
4.752203 1.706067 2.016058 172 163 146
4.766838 1.699818 1.994157 168 159 142
4.779629 1.692859 1.971460 153 144 127
4.801022 1.689368 1.952842 170 161 144
4.821618 1.685555 1.933844 125 116 99
4.838605 1.680320 1.913214 176 167 150
4.858249 1.676141 1.893806 169 160 143
4.875045 1.670858 1.873154 158 149 132
4.897458 1.667760 1.854976 171 162 145
4.914828 1.662717 1.834616 121 112 95
4.942934 1.661780 1.818819 157 148 131
4.969005 1.660034 1.802085 167 158 141
4.992850 1.657422 1.784371 122 113 96
5.017887 1.655239 1.767099 174 165 148
5.035248 1.650182 1.746709 141 132 115
5.057200 1.646833 1.728158 181 172 155
5.075488 1.642132 1.708168 157 148 131
5.098953 1.639329 1.690181 182 173 158
5.119184 1.635338 1.670938 175 166 151
5.145422 1.633512 1.653933 133 126 110
5.171381 1.631559 1.636762 175 166 151
5.211559 1.634639 1.624671 145 136 121
5.246079 1.635632 1.610358 176 167 152
5.286859 1.638761 1.598096 182 173 158
5.307141 1.634647 1.578534 138 129 114
5.320040 1.627971 1.556458 182 173 158
5.344185 1.625207 1.538236 143 134 119
5.367071 1.621996 1.519561 165 156 141
5.408199 1.624989 1.506806 145 136 121
5.432880 1.622328 1.488571 163 154 139
5.467210 1.622897 1.473344 161 152 137
5.488718 1.619122 1.453995 131 122 107
5.520257 1.618678 1.437711 182 173 158
5.548423 1.617075 1.420306 148 139 124
5.581319 1.616996 1.404233 162 153 138
5.595614 1.610798 1.382616 129 120 105
5.615690 1.606501 1.362720 171 162 147
5.667707 1.612506 1.351858 150 141 126
5.679226 1.605410 1.329450 176 167 152
5.694419 1.599521 1.308132 175 168 152
5.713220 1.594795 1.287836 159 152 136
5.736687 1.591547 1.268791 170 163 147
5.734137 1.580148 1.242963 127 118 103
1.723705 2.460331 5.199503 82 78 75
1.742584 2.452315 5.171460 103 99 98
1.763698 2.447983 5.150984 102 98 97
1.788910 2.450111 5.143695 82 78 77
1.808879 2.443919 5.119408 108 104 103
1.828746 2.437629 5.094938 98 94 91
1.849940 2.433401 5.074668 84 80 77
1.869158 2.426233 5.048451 111 107 104
1.892750 2.425572 5.035397 112 111 107
1.914496 2.422143 5.016736 93 92 88
1.929956 2.409705 4.979967 102 101 97
1.946400 2.398874 4.946493 105 102 97
1.967173 2.394247 4.925490 91 88 83
1.981815 2.381204 4.887698 111 108 103
1.997427 2.369706 4.853061 112 109 104
2.028965 2.347680 4.785917 90 87 80
2.047631 2.340709 4.760435 91 88 81
2.064225 2.331137 4.729846 94 91 84
2.082602 2.323970 4.704043 90 87 80
2.098789 2.314122 4.673005 104 99 93
2.117349 2.307365 4.648075 104 99 93
2.136803 2.301771 4.625444 117 112 106
2.153466 2.292824 4.596292 127 122 116
2.168547 2.282089 4.563710 146 142 133
2.196858 2.258913 4.495434 184 177 167
2.210573 2.247071 4.460916 183 177 165
2.228232 2.239930 4.435523 165 157 146
2.247084 2.234212 4.412895 167 159 146
2.263411 2.225703 4.384934 170 162 149
2.279680 2.217229 4.357088 173 163 151
2.295720 2.208602 4.328992 172 163 148
2.315775 2.204432 4.309414 178 169 152
2.329937 2.193943 4.277856 169 160 145
2.342588 2.181991 4.243597 158 149 134
2.366280 2.181805 4.231611 136 127 112
2.389656 2.181212 4.218820 141 132 117
2.411905 2.179389 4.203690 154 145 130
2.429726 2.173017 4.180024 140 131 114
2.448620 2.167775 4.158493 176 169 153
2.467073 2.162120 4.136207 161 154 138
2.485413 2.156388 4.113794 167 158 141
2.506910 2.153777 4.097178 182 173 156
2.528309 2.151044 4.080320 156 147 130
2.548378 2.147014 4.061065 164 155 140
2.566840 2.141462 4.039017 158 149 134
2.584783 2.135456 4.016153 189 179 167
2.600701 2.127609 3.989948 131 122 105
2.616554 2.119778 3.963815 136 127 112
2.638012 2.117129 3.947129 141 132 117
2.661305 2.116113 3.933385 143 135 122
2.679232 2.110245 3.910853 140 132 119
2.695972 2.103362 3.886515 139 131 118
2.715736 2.099187 3.867068 168 160 147
2.734376 2.094041 3.845886 147 139 126
2.752380 2.088371 3.823781 133 124 109
2.772871 2.084854 3.805525 199 192 176
2.795641 2.083254 3.790665 163 156 140
2.816816 2.080277 3.773345 145 138 122
2.837629 2.076983 3.755456 102 95 79
2.859885 2.074863 3.739625 171 162 147
2.880780 2.071603 3.721776 125 116 101
2.898645 2.065885 3.699626 163 154 139
2.919883 2.062897 3.682250 173 163 151
2.945602 2.063446 3.671003 143 133 121
2.965913 2.059666 3.652215 150 141 126
2.987076 2.056546 3.634567 184 175 160
3.002221 2.048765 3.608896 117 107 95
3.018893 2.042220 3.585384 164 154 142
3.035982 2.036036 3.562519 177 167 155
3.055036 2.031371 3.542264 94 85 70
3.078350 2.029895 3.527431 182 173 156
3.096029 2.024211 3.505452 134 125 110
3.112091 2.017370 3.481543 136 127 112
3.125145 2.008391 3.454075 70 62 49
3.139937 2.000750 3.428905 70 62 49
3.159070 1.996276 3.409062 170 162 149
3.177794 1.991521 3.388760 108 100 87
3.197201 1.987261 3.369286 166 158 145
3.215711 1.982382 3.348794 151 141 129
3.234563 1.977756 3.328730 81 71 59
3.251756 1.972002 3.306826 139 127 113
3.269732 1.966812 3.285864 157 148 133
3.285578 1.960206 3.262611 165 156 141
3.302195 1.954159 3.240298 190 181 166
3.321479 1.949919 3.220931 182 175 159
3.341190 1.945966 3.202031 126 119 103
3.362143 1.942826 3.184437 146 137 122
3.383834 1.940154 3.167582 138 129 114
3.405041 1.937151 3.150185 186 177 162
3.423458 1.932352 3.129929 138 129 114
3.442792 1.928150 3.110626 156 147 132
3.467679 1.927442 3.096831 139 130 115
3.487313 1.923410 3.077782 150 140 128
3.505548 1.918514 3.057385 159 149 137
3.521662 1.912331 3.034996 128 119 104
3.538152 1.906412 3.013046 166 157 142
3.557361 1.902168 2.993708 171 162 147
3.575703 1.897410 2.973583 168 159 144
3.595636 1.893614 2.954942 155 146 131
3.614610 1.889249 2.935433 163 154 139
3.635525 1.886030 2.917672 134 124 112
3.652870 1.880723 2.896742 154 144 132
3.669840 1.875220 2.875536 144 135 120
3.686462 1.869542 2.854087 185 176 159
3.703436 1.864091 2.833000 136 127 112
3.725581 1.861587 2.816319 172 163 148
3.744686 1.857357 2.797064 130 121 106
3.763478 1.852958 2.777563 164 155 140
3.778737 1.846613 2.755212 149 140 123
3.794297 1.840470 2.733186 172 163 146
3.812482 1.835790 2.713322 166 154 138
3.832720 1.832233 2.695096 135 123 107
3.861417 1.833216 2.683418 175 163 147
3.885185 1.831501 2.667800 158 146 130
3.905288 1.827816 2.649336 167 155 139
3.927692 1.825336 2.632587 178 166 150
3.947802 1.821640 2.614096 146 134 118
3.965217 1.816544 2.593630 161 149 133
3.982096 1.811190 2.572817 135 123 107
4.000234 1.806501 2.552952 171 159 143
4.015454 1.800341 2.531056 160 148 132
4.029573 1.793660 2.508469 147 135 119
4.043702 1.787022 2.485980 163 151 135
4.058284 1.780649 2.463891 140 128 112
4.076757 1.776230 2.444501 162 150 134
4.094115 1.771274 2.424389 155 143 127
4.119238 1.770113 2.409412 158 149 132
4.143465 1.768481 2.393768 146 137 120
4.166569 1.766281 2.377333 153 144 127
4.187171 1.762865 2.359260 163 152 134
4.203361 1.757353 2.338413 156 145 127
4.222596 1.753297 2.319502 139 131 112
4.241491 1.749084 2.300389 158 149 132
4.268249 1.748525 2.286031 171 162 145
4.291122 1.746132 2.269255 104 92 76
4.314367 1.743890 2.252652 165 153 137
4.340115 1.742763 2.237453 171 159 143
4.367428 1.742308 2.223068 146 137 120
4.390113 1.739730 2.205951 156 147 130
4.411899 1.736735 2.188290 129 120 105
4.441650 1.737255 2.175009 140 131 116
4.464250 1.734572 2.157684 160 151 136
4.485168 1.731137 2.139414 166 157 140
4.509223 1.729059 2.122802 143 134 117
4.533058 1.726862 2.106019 146 137 120
4.555534 1.724061 2.088478 150 141 124
4.575406 1.720136 2.069566 164 155 140
4.589588 1.713806 2.047774 164 155 140
4.605338 1.708166 2.026839 135 123 107
4.626097 1.704640 2.008432 171 159 143
4.642557 1.699325 1.987918 144 135 118
4.651384 1.690884 1.963775 169 160 143
4.665223 1.684554 1.942149 119 110 93
4.676777 1.677325 1.919527 181 172 155
4.699028 1.674464 1.901954 157 148 131
4.720201 1.671157 1.883859 176 164 148
4.737581 1.666329 1.864039 174 162 146
4.758432 1.662890 1.845790 127 115 99
4.773205 1.657050 1.824862 166 154 138
4.795943 1.654354 1.807441 139 130 113
4.811949 1.649023 1.787110 172 163 146
4.839579 1.648206 1.771720 174 165 148
4.864384 1.646265 1.755065 169 160 143
4.885688 1.642963 1.736919 183 174 157
4.908658 1.640286 1.719429 162 153 136
4.925996 1.635471 1.699660 180 168 152
4.947190 1.632113 1.681433 112 103 86
4.965387 1.627632 1.662030 175 166 149
4.988489 1.624973 1.644519 141 132 115
5.010295 1.621823 1.626485 167 158 143
5.033165 1.619053 1.608825 101 92 77
5.058443 1.617143 1.592014 161 152 137
5.101589 1.621659 1.581594 139 130 115
5.133927 1.622195 1.567088 165 156 141
5.172588 1.624930 1.554669 172 163 148
5.192113 1.620803 1.535451 151 142 127
5.206303 1.614799 1.514422 175 166 151
5.229194 1.611867 1.496370 134 125 110
5.249860 1.608148 1.477556 175 166 151
5.287039 1.610137 1.464105 131 122 107
5.308827 1.606764 1.445556 179 170 155
5.340371 1.606717 1.430068 159 150 135
5.360556 1.602766 1.410942 152 143 128
5.392557 1.602803 1.395428 176 167 152
5.419923 1.601237 1.378406 131 122 107
5.452993 1.601544 1.363005 167 158 143
5.470513 1.596646 1.342953 134 125 110
5.494189 1.593788 1.324692 178 169 154
5.545294 1.599896 1.314136 169 160 145
5.560433 1.594179 1.293318 114 105 90
5.582209 1.590629 1.274359 157 150 134
5.600891 1.586080 1.254558 125 118 102
5.619390 1.581478 1.234724 152 145 129
5.613546 1.569149 1.208595 152 143 128
1.698964 2.442451 5.101868 103 99 96
1.715966 2.432015 5.069217 89 85 82
1.736442 2.427366 5.048321 96 92 89
1.761647 2.430247 5.042626 106 102 99
1.780769 2.423402 5.017288 87 83 80
1.799482 2.416003 4.990860 112 108 105
1.819438 2.410590 4.968444 105 102 97
1.838160 2.403358 4.942403 97 94 89
1.861409 2.402922 4.929948 89 86 81
1.882990 2.399949 4.912413 96 93 88
1.895258 2.383509 4.868116 91 88 83
1.909428 2.370103 4.829945 86 81 75
1.927889 2.362970 4.804263 87 82 76
1.941335 2.348959 4.765039 82 77 71
1.954598 2.334951 4.725914 114 109 103
1.971163 2.325662 4.696146 114 109 103
1.985463 2.313480 4.660760 136 132 123
2.002528 2.305149 4.632974 157 153 144
2.018993 2.296142 4.603912 170 166 157
2.038281 2.290892 4.582203 177 173 164
2.055810 2.283435 4.556226 177 170 160
2.073766 2.276599 4.531481 175 168 158
2.092807 2.271178 4.509496 162 155 145
2.110735 2.264426 4.484963 164 157 147
2.126037 2.254555 4.454461 166 158 147
2.140756 2.244122 4.422940 176 168 155
2.156593 2.235163 4.394298 181 173 160
2.172749 2.226693 4.366636 174 167 151
2.190600 2.220287 4.342947 161 152 137
2.208926 2.214482 4.320418 140 131 114
2.225868 2.207152 4.295024 134 125 108
2.243700 2.200894 4.271686 160 151 134
2.261079 2.194184 4.247521 148 139 122
2.278379 2.187451 4.223340 163 154 137
2.294423 2.179416 4.196746 182 173 156
2.307638 2.168437 4.164693 161 152 137
2.329794 2.167096 4.150670 151 142 127
2.350223 2.163887 4.133152 150 141 126
2.371476 2.161521 4.117189 161 152 135
2.389645 2.155954 4.095294 168 159 142
2.406842 2.149431 4.071653 146 139 123
2.424446 2.143375 4.048895 167 159 146
2.444185 2.139489 4.030141 162 155 139
2.463715 2.135399 4.011014 167 158 143
2.484530 2.132569 3.994186 185 176 161
2.506373 2.130712 3.979118 183 174 159
2.525042 2.125776 3.958445 160 152 139
2.542210 2.119439 3.935249 139 131 120
2.558771 2.112578 3.911135 137 128 113
2.575644 2.106067 3.887679 166 159 143
2.596143 2.102946 3.870331 172 164 151
2.618750 2.101734 3.856386 162 154 141
2.636967 2.096506 3.835256 117 111 97
2.654206 2.090427 3.812629 112 106 92
2.673236 2.085980 3.792915 165 159 145
2.692398 2.081658 3.773430 198 192 178
2.710778 2.076666 3.752769 193 184 169
2.730948 2.073237 3.734865 163 156 140
2.752765 2.071208 3.719409 195 188 172
2.773527 2.068253 3.702315 186 179 163
2.793960 2.065005 3.684703 183 176 160
2.815577 2.062730 3.668774 138 131 115
2.835923 2.059381 3.650968 164 155 140
2.853541 2.053796 3.629302 170 160 148
2.873785 2.050366 3.611358 149 139 129
2.896715 2.049082 3.597088 168 158 146
2.917444 2.046003 3.579725 99 90 75
2.938432 2.043115 3.562677 177 168 151
2.953928 2.035921 3.538311 198 189 174
2.970910 2.029936 3.516026 120 110 98
2.988586 2.024519 3.494723 165 155 143
3.007417 2.020009 3.474961 163 156 140
3.028470 2.017186 3.458033 153 144 129
3.045303 2.011189 3.435794 137 128 113
3.060961 2.004356 3.412189 177 169 156
3.074322 1.995884 3.385899 106 98 85
3.089051 1.988488 3.361439 170 162 149
3.107171 1.983603 3.341156 153 145 132
3.124465 1.978144 3.319941 170 162 149
3.142932 1.973546 3.300154 163 155 142
3.160371 1.968235 3.279214 91 81 69
3.178183 1.963209 3.258755 130 120 108
3.195294 1.957717 3.237555 171 162 147
3.212410 1.952255 3.216422 145 136 121
3.227211 1.945239 3.192811 174 165 150
3.242886 1.938866 3.170267 181 172 157
3.261127 1.934259 3.150570 87 78 63
3.280344 1.930315 3.131938 159 152 136
3.300657 1.927099 3.114459 144 135 120
3.322227 1.924700 3.098261 184 175 160
3.343136 1.921847 3.081334 78 69 52
3.360907 1.916952 3.061199 172 163 146
3.379168 1.912388 3.041593 169 160 145
3.402776 1.911237 3.027300 120 111 96
3.421971 1.907261 3.008601 149 139 127
3.439558 1.902279 2.988355 118 108 96
3.454654 1.895767 2.965773 171 162 147
3.469863 1.889367 2.943394 165 156 141
3.487887 1.884729 2.923732 145 136 121
3.504851 1.879460 2.903123 169 160 145
3.522541 1.874650 2.883227 140 131 116
3.540843 1.870223 2.863919 184 175 160
3.561044 1.866933 2.846323 171 162 147
3.577535 1.861449 2.825445 137 128 113
3.594009 1.855980 2.804612 165 153 137
3.608739 1.849522 2.782336 147 138 121
3.624049 1.843439 2.760647 171 162 145
3.645075 1.840661 2.743836 149 140 125
3.664737 1.837093 2.725859 155 146 131
3.683777 1.833172 2.707366 144 135 118
3.700015 1.827684 2.686604 164 155 138
3.713712 1.820808 2.663864 153 141 125
3.733429 1.817300 2.645998 178 167 149
3.754696 1.814637 2.629337 165 154 136
3.781537 1.814990 2.616952 115 103 87
3.805818 1.813902 2.602474 189 177 161
3.827775 1.811530 2.586150 136 124 108
3.850243 1.809410 2.570160 177 165 149
3.870435 1.806062 2.552436 184 172 156
3.889073 1.801894 2.533564 142 130 114
3.906872 1.797293 2.514099 167 155 139
3.924883 1.792813 2.494812 179 167 151
3.940969 1.787354 2.474191 145 133 117
3.955454 1.781100 2.452512 166 154 138
3.970387 1.775108 2.431220 167 155 141
3.985338 1.769156 2.410011 138 126 112
4.002774 1.764476 2.390542 175 163 149
4.019134 1.759275 2.370387 171 159 145
4.043526 1.758054 2.355545 147 138 121
4.068507 1.757087 2.341002 149 138 120
4.092402 1.755553 2.325677 175 164 146
4.112743 1.752273 2.308033 161 150 132
4.127928 1.746511 2.287153 138 127 109
4.145767 1.742041 2.267974 172 163 146
4.163456 1.737510 2.248725 164 155 138
4.188408 1.736404 2.233874 126 117 100
4.210206 1.733789 2.217064 162 150 134
4.233737 1.731963 2.201236 160 148 132
4.258986 1.730903 2.186346 152 140 124
4.282790 1.729144 2.170542 152 140 124
4.305265 1.726755 2.153924 137 128 111
4.327271 1.724135 2.137000 171 162 147
4.354661 1.723917 2.123014 130 121 106
4.376416 1.721139 2.105845 141 131 119
4.395810 1.717301 2.087373 162 153 136
4.418133 1.714754 2.070460 155 146 129
4.440601 1.712253 2.053586 152 143 126
4.462161 1.709340 2.036200 170 161 144
4.482002 1.705675 2.017907 96 87 70
4.494553 1.698882 1.995923 173 164 147
4.509875 1.693308 1.975412 156 144 128
4.531473 1.690413 1.958048 160 148 132
4.546588 1.684780 1.937502 120 111 96
4.553451 1.675723 1.913047 156 147 130
4.568182 1.669999 1.892479 158 149 132
4.581124 1.663563 1.871132 160 149 131
4.602875 1.660770 1.853931 179 168 150
4.621372 1.656640 1.835217 144 133 115
4.639519 1.652372 1.816357 192 181 163
4.659593 1.648885 1.798366 147 136 118
4.679326 1.645259 1.780217 174 162 146
4.703763 1.643498 1.764096 148 136 120
4.720344 1.638612 1.744568 182 173 156
4.745060 1.636930 1.728493 187 178 161
4.767797 1.634451 1.711535 106 97 80
4.790244 1.631842 1.694420 174 165 148
4.812361 1.629093 1.677139 140 128 112
4.826854 1.623414 1.656793 166 154 138
4.848104 1.620327 1.639153 179 170 153
4.868696 1.616983 1.621239 164 155 138
4.889961 1.613886 1.603568 167 158 141
4.909148 1.610005 1.585097 140 131 114
4.930669 1.606990 1.567492 160 151 134
4.954425 1.604790 1.550682 128 119 102
4.996673 1.609342 1.540488 172 163 146
5.031814 1.611204 1.527533 180 171 154
5.070250 1.614190 1.515570 119 110 93
5.089491 1.610191 1.496796 155 146 129
5.103971 1.604492 1.476410 168 159 142
5.126270 1.601594 1.458693 155 146 129
5.145084 1.597453 1.439800 147 138 121
5.177111 1.597952 1.425204 179 170 153
5.199241 1.594948 1.407323 134 125 108
5.230780 1.595194 1.392380 170 161 144
5.249267 1.590894 1.373277 129 120 105
5.281076 1.591163 1.358250 167 158 143
5.308070 1.589742 1.341662 165 156 141
5.340532 1.590142 1.326621 156 147 132
5.359207 1.585854 1.307453 153 144 129
5.383256 1.583367 1.289833 123 114 99
5.429539 1.588253 1.278432 177 168 153
5.443940 1.582502 1.257962 163 154 139
5.463752 1.578550 1.239016 177 170 154
5.480186 1.573495 1.219167 165 158 142
5.498074 1.568926 1.199733 119 112 96
5.491774 1.556562 1.174059 172 163 148
1.672318 2.420563 4.998322 111 106 102
1.688191 2.408946 4.963670 94 89 85
1.708447 2.404676 4.943772 80 75 71
1.733400 2.407943 4.938915 76 71 67
1.750860 2.399163 4.910013 93 88 84
1.767019 2.388489 4.877390 93 88 82
1.785127 2.380993 4.851128 95 90 84
1.801518 2.370992 4.819941 110 106 97
1.823094 2.368907 4.804424 119 115 106
1.845402 2.367851 4.790918 141 137 128
1.869150 2.335523 4.704625 171 164 156
1.887653 2.329236 4.680951 175 168 160
1.901007 2.315799 4.643354 176 169 161
1.915057 2.303566 4.608188 164 157 149
1.932621 2.296340 4.582813 173 166 158
1.948024 2.286282 4.551988 171 164 154
1.965647 2.279333 4.527225 174 168 156
1.983305 2.272503 4.502719 178 172 160
2.003938 2.269612 4.485812 176 168 157
2.021758 2.263084 4.461924 176 168 157
2.039215 2.256162 4.437303 177 169 156
2.058165 2.251180 4.416415 147 139 126
2.077215 2.246350 4.395825 135 127 114
2.093035 2.237586 4.367775 156 147 132
2.109362 2.229550 4.341150 157 148 131
2.125301 2.221144 4.313865 154 145 128
2.140800 2.212321 4.285838 169 160 143
2.156568 2.203925 4.258659 170 161 144
2.173053 2.196458 4.233268 161 152 137
2.189243 2.188736 4.207435 153 144 129
2.206956 2.182822 4.185011 146 137 122
2.225095 2.177428 4.163578 148 139 122
2.242395 2.171141 4.140500 177 168 153
2.258901 2.164038 4.115936 160 151 136
2.273429 2.154863 4.087577 147 138 123
2.293982 2.152258 4.071371 169 159 147
2.313289 2.148306 4.052680 121 111 99
2.333683 2.145499 4.036086 156 147 132
2.351831 2.140338 4.015183 162 155 139
2.368505 2.133691 3.991585 118 110 97
2.387077 2.129032 3.971629 149 141 128
2.406387 2.125135 3.953061 154 144 132
2.423811 2.119358 3.931098 153 144 129
2.441670 2.114051 3.910002 160 151 136
2.463361 2.112519 3.895703 192 183 168
2.483246 2.109196 3.878171 127 117 105
2.501070 2.103887 3.857090 171 163 152
2.518701 2.098426 3.835751 178 168 156
2.536127 2.092805 3.814145 154 147 131
2.555888 2.089391 3.796467 173 165 152
2.577968 2.088107 3.782548 159 151 138
