2.254762 3.304484 9.242333 74 74 72
2.303101 3.297359 9.214080 74 74 72
2.346864 3.283315 9.166774 73 73 73
2.392518 3.272435 9.128212 73 73 73
2.439405 3.263545 9.095145 79 79 79
2.486251 3.254709 9.062240 74 74 74
2.532044 3.244524 9.025645 75 75 75
2.581254 3.239131 9.002208 74 74 74
2.822702 3.205950 8.867978 76 78 77
2.875861 3.205164 8.857080 77 79 78
2.930944 3.206416 8.851703 72 74 73
2.984397 3.205500 8.840383 77 78 80
3.035176 3.201358 8.820272 75 76 78
3.085939 3.197114 8.799868 75 76 78
3.138161 3.194375 8.783536 74 75 77
3.188647 3.189649 8.761799 74 75 77
3.240067 3.185843 8.742541 75 76 78
3.293994 3.184525 8.729996 75 76 78
3.341696 3.176725 8.699917 76 77 79
3.389652 3.169225 8.670651 77 78 80
3.589427 3.146956 8.574430 75 77 76
3.635115 3.137418 8.539703 76 78 77
3.680446 3.127655 8.504390 73 74 76
3.724772 3.117103 8.466985 76 77 79
3.766753 3.104630 8.424461 73 74 76
3.816455 3.098982 8.400214 74 75 77
3.859827 3.087947 8.361583 75 76 78
3.910037 3.082756 8.338560 72 74 73
3.964859 3.081322 8.325536 73 75 74
4.013843 3.075010 8.299505 72 74 73
4.060614 3.066927 8.268768 75 77 76
4.110941 3.061690 8.245593 68 70 69
4.159116 3.054749 8.217894 74 76 75
4.198804 3.041330 8.173038 72 74 73
4.245097 3.033087 8.141920 74 76 75
4.294699 3.027355 8.117450 73 74 76
4.343589 3.021082 8.091544 77 78 80
4.391290 3.013944 8.063358 75 76 78
4.438644 3.006577 8.034575 73 74 76
4.486736 2.999756 8.007229 76 77 79
4.540544 2.996917 7.990353 72 73 75
4.593900 2.993676 7.972398 78 79 81
4.647259 2.990354 7.954212 74 75 77
4.700613 2.986949 7.935788 76 77 79
4.749235 2.980343 7.908973 73 74 76
4.792332 2.970139 7.872764 74 75 77
4.838070 2.961729 7.841257 75 76 78
4.885513 2.954451 7.812714 75 76 78
4.929023 2.944725 7.777802 71 72 74
4.973926 2.935943 7.745367 70 71 73
5.013840 2.924160 7.705158 71 72 74
5.048829 2.909526 7.657588 73 73 75
5.086125 2.896467 7.614154 75 75 77
5.126801 2.885564 7.576335 76 76 78
5.163526 2.872458 7.532859 72 72 74
5.201272 2.860100 7.491354 77 77 79
5.249327 2.853762 7.465400 71 71 73
5.294134 2.845592 7.434731 72 72 74
5.337638 2.836737 7.402315 71 71 73
5.387384 2.831380 7.378893 71 71 73
5.440733 2.827965 7.360443 74 74 76
5.500722 2.828063 7.350965 70 70 72
5.559077 2.827148 7.338851 71 71 73
5.620640 2.827804 7.330712 71 71 73
5.679193 2.826736 7.318130 73 73 75
5.735270 2.824276 7.301968 71 71 73
5.786202 2.819106 7.278888 74 74 76
5.838748 2.814723 7.257800 69 70 72
5.886232 2.807771 7.230180 73 74 76
5.931458 2.799714 7.199767 73 74 76
5.986811 2.796641 7.181969 70 71 73
6.031616 2.788398 7.151091 67 68 70
6.072160 2.778153 7.115179 64 65 67
6.118206 2.770593 7.086054 70 71 73
6.165956 2.763856 7.059009 69 70 72
6.228283 2.763889 7.048962 64 64 66
6.283907 2.760712 7.030822 68 68 70
6.337875 2.756717 7.010611 70 70 72
6.382279 2.748369 6.979500 72 72 74
6.421597 2.737795 6.942842 69 69 71
6.462488 2.727995 6.908150 67 67 69
6.660890 2.704227 6.807858 66 67 69
6.716957 2.700977 6.789436 68 69 71
6.778380 2.699893 6.776342 72 73 75
6.831393 2.695243 6.754412 70 71 73
6.895177 2.694953 6.743204 70 71 73
6.940132 2.686939 6.712958 66 67 69
6.976523 2.675527 6.674382 67 68 70
7.024667 2.668867 6.647494 68 69 71
7.070163 2.661172 6.618072 68 69 71
7.121799 2.655890 6.594555 66 67 69
7.168032 2.648503 6.565897 67 68 70
7.219357 2.643078 6.542024 69 71 70
7.331667 2.611218 6.432584 65 67 66
7.380720 2.605026 6.406885 69 70 72
7.444255 2.604112 6.393933 67 68 70
7.489434 2.596464 6.364698 64 65 67
7.539906 2.590734 6.340091 68 69 71
7.602798 2.589402 6.326046 64 65 67
7.663161 2.587089 6.309608 68 69 71
7.711908 2.580652 6.283257 67 68 70
7.764721 2.575621 6.260268 66 67 69
7.815283 2.569793 6.235366 64 65 67
7.854301 2.560034 6.201094 72 72 74
7.908074 2.555301 6.178800 70 70 72
8.041973 2.531931 6.090144 67 67 69
8.097221 2.527639 6.068874 70 70 72
8.147978 2.521863 6.044087 70 71 73
8.201138 2.516844 6.021076 71 71 73
8.253653 2.511595 5.997515 73 73 75
8.305204 2.506024 5.973186 67 67 69
8.348395 2.497834 5.942721 69 69 71
8.407502 2.494590 5.923822 66 66 68
8.463858 2.490448 5.902805 68 68 70
8.530277 2.489327 5.888789 68 68 68
8.588687 2.485703 5.868917 68 68 68
8.645337 2.481506 5.847692 68 68 68
8.693632 2.474796 5.820633 65 65 65
8.731647 2.465069 5.786614 72 72 72
8.770289 2.455579 5.753170 65 65 65
8.819538 2.449203 5.726913 67 67 67
9.079956 2.441427 5.662297 70 70 70
9.147671 2.440025 5.647267 69 69 71
9.320978 2.427248 5.582511 72 72 74
0.976633 3.459489 9.737620 79 79 77
1.024567 3.453482 9.712618 70 70 68
1.352804 3.389831 9.477954 69 69 67
1.399827 3.381983 9.447917 77 77 75
1.445474 3.370615 9.408191 75 75 73
1.494109 3.367229 9.390458 73 73 71
1.542640 3.363379 9.371435 76 76 74
1.588943 3.354084 9.337442 79 79 77
1.635576 3.345751 9.306103 75 75 73
1.683429 3.340247 9.282533 74 74 72
1.730640 3.333322 9.255066 75 75 73
1.776175 3.322956 9.218184 78 78 76
1.823485 3.316411 9.191771 79 79 77
1.871493 3.311244 9.169126 86 86 84
2.003002 3.272926 9.038984 76 76 74
2.048325 3.263444 9.004625 78 78 76
2.091663 3.250753 8.961561 71 71 69
2.136954 3.241629 8.928217 81 81 79
2.179795 3.228689 8.884536 78 78 76
2.226792 3.222633 8.859551 75 75 73
2.267526 3.206926 8.808425 83 83 83
2.310371 3.194841 8.767149 79 79 79
2.356033 3.187165 8.737825 74 74 74
2.401893 3.179841 8.709460 78 78 78
2.445628 3.169585 8.673192 74 74 74
2.493213 3.164794 8.651678 76 76 76
2.722635 3.129510 8.513601 78 78 76
2.773436 3.128524 8.502268 80 80 78
2.826808 3.130397 8.498561 79 79 79
2.877673 3.129038 8.486165 78 78 78
2.926585 3.125262 8.467288 76 76 78
2.975739 3.121670 8.448885 68 68 70
3.024722 3.117793 8.429711 80 80 80
3.071937 3.111916 8.405198 78 80 79
3.120972 3.107967 8.385811 72 74 73
3.171150 3.105134 8.369378 73 75 74
3.214532 3.095200 8.334073 69 71 70
3.259093 3.086582 8.302282 71 71 71
3.453088 3.067782 8.216632 74 76 75
3.496690 3.058408 8.182866 70 72 71
3.539551 3.048454 8.147595 68 70 69
3.583405 3.039513 8.115011 76 78 77
3.623745 3.027536 8.074465 69 71 70
3.671266 3.022013 8.050896 68 70 69
3.714543 3.012817 8.017692 71 73 72
3.764333 3.009233 7.999205 77 77 77
3.818039 3.008844 7.989066 63 63 63
3.865149 3.002856 7.964257 72 72 72
3.909412 2.994553 7.933401 69 69 69
3.957958 2.989734 7.911645 73 73 73
4.004042 2.982937 7.884728 76 76 76
4.040298 2.968517 7.837981 68 68 68
4.085063 2.960847 7.808826 73 73 73
4.133685 2.956135 7.787358 72 72 72
4.179605 2.949368 7.760554 74 74 74
4.226618 2.943421 7.735878 81 81 81
4.271556 2.935962 7.707289 75 75 75
4.317934 2.929569 7.681459 72 72 72
4.369333 2.926730 7.664804 77 77 77
4.421144 2.924091 7.648644 75 75 75
4.473385 2.921659 7.632993 71 71 71
4.522910 2.917284 7.612322 72 74 73
4.569068 2.910602 7.585719 68 70 69
4.611187 2.901257 7.552286 73 75 74
4.655808 2.893627 7.523269 71 73 72
4.702708 2.887506 7.498121 71 73 72
4.744846 2.878342 7.465199 76 78 77
4.788218 2.870030 7.434467 73 75 74
4.825943 2.858249 7.394913 71 73 72
4.861304 2.845148 7.352034 73 73 73
4.897522 2.832733 7.310943 75 75 75
4.936217 2.821954 7.274049 74 74 74
4.975035 2.811358 7.237646 75 75 75
5.014842 2.801445 7.203007 73 73 73
5.063136 2.796548 7.181073 77 77 77
5.106431 2.788754 7.151816 75 75 75
5.148785 2.780465 7.121320 73 73 73
5.197412 2.775744 7.099827 70 70 70
5.248280 2.772235 7.081372 78 78 78
5.306266 2.772573 7.072562 73 73 73
5.362418 2.771774 7.060854 77 77 77
5.423591 2.773552 7.055565 84 84 84
5.478692 2.771935 7.041729 74 74 74
5.533376 2.770001 7.027072 73 73 73
5.586941 2.767395 7.010707 82 82 82
5.639158 2.764020 6.992403 75 75 75
5.683097 2.756378 6.963466 73 73 73
5.725417 2.747952 6.932593 70 70 70
5.779030 2.745194 6.915791 71 71 71
5.821194 2.736726 6.884825 77 77 77
5.861129 2.727219 6.851305 73 73 73
5.906638 2.720469 6.824618 78 78 78
5.951729 2.713532 6.797474 75 75 75
6.012418 2.713980 6.788519 80 80 82
6.065676 2.710819 6.770641 76 76 78
6.122486 2.709241 6.756629 68 68 70
6.165536 2.701265 6.726898 75 75 75
6.204661 2.691541 6.692906 72 72 72
6.246247 2.682994 6.661813 68 68 68
6.437336 2.659949 6.564686 76 78 77
6.488419 2.655584 6.543782 72 74 73
6.545556 2.653749 6.528989 74 76 75
6.597660 2.649718 6.508856 69 71 70
6.656607 2.648491 6.495473 69 71 70
6.700549 2.640992 6.466937 69 71 70
6.737254 2.630564 6.431366 77 79 78
6.780806 2.622982 6.402665 69 69 71
6.823255 2.614984 6.372975 74 74 74
6.876040 2.611119 6.353194 74 74 74
6.922562 2.604750 6.327409 72 72 72
7.076856 2.567261 6.195767 74 74 74
7.122806 2.560800 6.169822 71 71 71
7.177314 2.557528 6.151422 76 76 76
7.225201 2.551763 6.127111 73 73 73
7.272963 2.545946 6.102672 76 76 76
7.335595 2.545506 6.090887 70 70 70
7.396579 2.544373 6.077425 74 74 74
7.448059 2.539770 6.055784 75 75 75
7.499905 2.535269 6.034366 66 66 66
7.548368 2.529554 6.010101 69 69 71
7.594224 2.522928 5.983704 71 71 73
7.645151 2.518051 5.961383 77 77 79
7.783371 2.498409 5.882749 73 73 75
7.935380 2.483315 5.814612 67 67 67
7.983829 2.477525 5.790136 72 72 74
8.034606 2.472475 5.767354 64 64 66
8.076233 2.464494 5.737853 63 63 65
8.132999 2.461319 5.719343 70 70 72
8.183750 2.456211 5.696401 66 66 66
8.245870 2.454610 5.681430 66 66 66
8.307310 2.452724 5.665769 67 67 67
8.358535 2.447649 5.642841 67 67 67
8.404208 2.440876 5.616059 66 66 66
8.445088 2.432672 5.586054 62 62 62
8.491618 2.426182 5.559928 68 68 68
8.539440 2.420077 5.534669 66 66 66
8.782613 2.410461 5.466622 64 64 64
8.849670 2.409679 5.453127 63 63 63
9.118340 2.386328 5.342073 67 67 67
0.769208 3.416436 9.502608 78 78 76
0.861013 3.401087 9.444025 63 63 61
0.906004 3.389568 9.404214 92 92 90
0.949867 3.373860 9.352971 79 79 77
0.995938 3.368145 9.329093 88 88 86
1.042522 3.364351 9.310455 72 72 70
1.087203 3.353416 9.272324 69 69 67
1.132394 3.344716 9.240308 81 81 79
1.312614 3.310486 9.113921 80 80 78
1.357570 3.302143 9.082938 72 72 70
1.400846 3.289493 9.040288 82 82 80
1.447838 3.286885 9.024875 81 81 79
1.494714 3.283746 9.008005 79 79 77
1.538838 3.273815 8.972760 85 85 83
1.583677 3.265802 8.942711 72 72 70
1.630092 3.261445 8.922542 78 78 76
1.676046 3.255984 8.899386 74 74 72
1.720217 3.246739 8.866035 74 74 72
1.767421 3.243868 8.849854 79 79 77
1.814089 3.239752 8.830310 77 77 75
1.857173 3.228638 8.791960 75 76 71
1.899767 3.216892 8.751935 84 85 80
1.939861 3.200909 8.700584 75 76 71
1.983420 3.191588 8.667130 84 85 80
2.024761 3.178615 8.623918 73 74 69
2.070467 3.173330 8.601294 77 78 73
2.113906 3.164295 8.568655 77 78 73
2.159407 3.158704 8.545217 69 70 65
2.199133 3.144084 8.497715 75 75 73
2.242154 3.134889 8.464702 76 76 74
2.285156 3.125815 8.432027 78 78 76
2.328682 3.117642 8.401766 69 69 67
2.371808 3.108997 8.370261 74 74 72
2.415593 3.101388 8.341520 70 70 68
2.542277 3.072864 8.240287 70 70 68
2.588067 3.068207 8.219392 89 89 87
2.632532 3.061835 8.193969 86 86 84
2.682223 3.061913 8.185544 80 80 78
2.732969 3.063033 8.179829 74 74 72
2.778678 3.057921 8.157686 71 71 69
2.824658 3.053093 8.136284 80 80 78
2.872210 3.050016 8.119472 93 93 93
2.917168 3.043931 8.094756 78 78 78
2.961345 3.036992 8.067806 80 80 78
3.008708 3.033528 8.049953 75 75 73
3.057855 3.031873 8.036808 74 76 73
3.097387 3.020037 7.997071 70 70 68
3.137553 3.009053 7.959584 74 74 72
3.279948 2.998438 7.905351 91 91 89
3.324283 2.991740 7.879042 83 83 81
3.368546 2.984998 7.852624 75 75 73
3.408872 2.974621 7.816798 80 80 78
3.452406 2.967318 7.788948 88 88 86
3.494068 2.958368 7.756853 80 80 80
3.540246 2.953519 7.735357 80 80 80
3.583570 2.946141 7.707337 84 84 84
3.632173 2.943352 7.691142 75 75 73
3.685800 2.944733 7.685650 89 89 87
3.728108 2.936437 7.655257 84 84 82
3.769635 2.927564 7.623399 93 93 91
3.817931 2.924273 7.605864 77 77 75
3.861249 2.916921 7.577917 77 77 75
3.895014 2.902064 7.530789 78 78 76
3.938036 2.894662 7.502758 80 80 78
3.986123 2.891191 7.484757 73 73 73
4.027016 2.882202 7.452686 74 74 74
4.069917 2.874796 7.424663 82 82 82
4.115504 2.869411 7.401783 79 79 79
4.160940 2.863901 7.378582 79 79 79
4.208714 2.860061 7.359611 72 72 72
4.259410 2.858238 7.345731 75 75 75
4.311750 2.857460 7.334470 77 77 77
4.357139 2.851747 7.310713 81 81 81
4.398711 2.843424 7.280374 60 60 60
4.441660 2.836088 7.252536 80 80 80
4.485069 2.829093 7.225564 78 78 78
4.529365 2.822706 7.200126 76 76 76
4.572230 2.815402 7.172390 75 75 75
4.615877 2.808631 7.146000 80 80 80
4.651985 2.797103 7.107713 77 77 77
4.687158 2.785123 7.068332 72 72 72
4.724986 2.774929 7.033448 75 75 75
4.762861 2.764864 6.998915 70 70 70
4.804436 2.757133 6.970216 73 73 73
4.848269 2.750793 6.944989 73 73 73
4.898156 2.748037 6.928664 75 75 75
4.935306 2.737775 6.893709 75 75 75
4.972186 2.727455 6.858641 80 80 80
5.018946 2.722874 6.837789 69 69 69
5.067800 2.719446 6.819774 80 80 80
5.121122 2.718457 6.807755 75 75 75
5.177016 2.718780 6.798932 73 73 73
5.239029 2.722307 6.797942 75 75 75
5.288494 2.718854 6.779751 79 79 79
5.335031 2.713783 6.757577 69 69 69
5.389637 2.712958 6.745791 74 74 74
5.442592 2.711160 6.731591 76 76 76
5.482586 2.702571 6.700786 72 72 72
5.526034 2.695804 6.674442 70 70 70
5.582674 2.695737 6.664403 76 76 76
5.625027 2.688385 6.636628 77 77 77
5.663258 2.679018 6.603969 77 77 77
5.708248 2.673040 6.579545 74 74 74
5.752020 2.666469 6.553689 83 83 83
5.807186 2.665393 6.541108 74 74 74
5.860066 2.663130 6.525628 83 83 83
5.920778 2.664485 6.518834 79 79 79
5.961140 2.656196 6.488797 78 78 78
5.995326 2.645098 6.452038 79 79 79
6.038856 2.638377 6.425805 83 83 81
6.182179 2.623958 6.360845 80 80 80
6.227256 2.617920 6.336240 84 84 84
6.275088 2.613084 6.314494 90 90 90
6.324573 2.608939 6.294380 83 83 83
6.376522 2.605813 6.276666 88 88 88
6.433480 2.604755 6.263823 80 80 80
6.476425 2.597725 6.236835 67 67 67
6.514149 2.588544 6.204784 80 80 80
6.553058 2.579911 6.174046 78 78 78
6.592611 2.571590 6.144062 75 75 75
6.644157 2.568158 6.125570 77 77 77
6.691345 2.562935 6.102860 68 68 68
6.929352 2.514204 5.926161 75 75 75
6.980084 2.510373 5.906701 74 74 74
7.028823 2.505762 5.885423 68 68 68
7.094012 2.507200 5.878080 69 69 69
7.153788 2.506527 5.865817 74 74 74
7.203278 2.502031 5.844726 77 77 77
7.253951 2.497934 5.824536 70 70 70
7.296384 2.490866 5.797533 73 73 73
7.346237 2.486439 5.776572 67 67 67
7.405161 2.485162 5.762780 72 72 72
7.450326 2.479026 5.737887 73 73 73
7.491255 2.471434 5.709688 75 75 75
7.545196 2.468310 5.691634 74 74 74
7.687632 2.452197 5.622123 70 70 70
7.736394 2.447228 5.599845 69 69 69
7.783053 2.441553 5.575974 70 70 70
7.821234 2.433120 5.545921 74 74 74
7.875177 2.429801 5.527323 71 71 71
7.923805 2.424740 5.504815 77 77 77
7.978860 2.421698 5.486794 74 74 74
8.038134 2.419932 5.471581 71 71 69
8.092611 2.416602 5.452861 67 67 67
8.136526 2.409965 5.426798 72 72 72
8.169148 2.399879 5.393119 71 71 71
8.224966 2.396906 5.375158 72 72 72
8.277195 2.392802 5.354679 68 68 68
8.503914 2.381273 5.283238 70 70 70
8.562691 2.378871 5.266348 69 69 69
0.750387 3.330833 9.127535 74 75 70
0.795419 3.328173 9.112184 71 72 67
0.839259 3.319277 9.079986 80 81 76
0.882650 3.308695 9.043254 80 80 78
0.925072 3.294487 8.996774 79 79 77
0.969347 3.288753 8.973148 64 64 62
1.014074 3.284750 8.954177 76 76 74
1.057059 3.274180 8.917552 87 87 85
1.100721 3.266423 8.888500 78 78 76
1.360543 3.217111 8.707002 73 73 71
1.405018 3.212549 8.686549 79 79 77
1.450081 3.209371 8.669776 80 80 78
1.492848 3.200454 8.637712 72 72 70
1.535537 3.191561 8.605727 78 78 76
1.579712 3.186235 8.583236 78 78 76
1.624841 3.182969 8.566211 89 89 87
1.667992 3.175343 8.537609 81 81 79
1.713865 3.173438 8.524172 71 71 69
1.758822 3.169471 8.505261 71 71 69
1.800539 3.159095 8.469393 84 85 80
1.881284 3.134133 8.386620 77 78 73
2.005105 3.103808 8.281450 79 80 75
2.091397 3.090699 8.230114 75 76 71
2.129730 3.076592 8.184645 72 73 68
2.170666 3.066892 8.150766 82 83 78
2.212075 3.058086 8.119249 75 76 71
2.253580 3.049560 8.088481 65 66 61
2.295089 3.041162 8.058063 68 69 64
2.338577 3.035673 8.035248 91 91 89
2.547824 2.997661 7.893735 72 71 67
2.595944 2.998104 7.886320 84 83 79
2.644047 2.998289 7.878204 72 71 67
2.686619 2.991610 7.852297 81 80 76
2.730009 2.985930 7.828979 81 80 76
2.775336 2.982489 7.811439 76 75 73
2.818120 2.976077 7.786225 77 76 74
2.860145 2.968843 7.758899 78 77 73
2.904879 2.964630 7.739352 76 77 72
2.950030 2.960814 7.720816 80 81 76
2.988295 2.949642 7.683392 82 83 78
3.026561 2.938657 7.646474 83 82 78
3.068222 2.931320 7.618933 76 72 69
3.112763 2.926935 7.598951 117 113 110
3.162286 2.927440 7.591455 141 140 136
3.205396 2.921498 7.567469 85 84 80
3.248426 2.915487 7.543306 79 78 74
3.289168 2.907324 7.513670 98 97 95
3.330976 2.900228 7.486759 77 76 74
3.372884 2.893265 7.460196 90 89 87
3.417081 2.888402 7.438969 85 84 82
3.462132 2.884272 7.419593 88 87 85
3.508814 2.881521 7.403697 80 80 78
3.557479 2.880392 7.391882 74 74 72
3.600365 2.874222 7.367314 77 77 75
3.640864 2.866068 7.337742 81 81 79
3.684030 2.860181 7.313900 79 79 77
3.725638 2.853034 7.286884 76 76 74
3.760194 2.840268 7.245762 82 82 80
3.801413 2.832968 7.218398 77 77 75
3.847461 2.829478 7.200595 68 68 66
3.887931 2.821635 7.171882 81 81 79
3.928020 2.813560 7.142601 77 77 75
3.972631 2.808936 7.121953 76 76 74
4.017128 2.804199 7.101016 88 88 86
4.062279 2.799915 7.081200 87 87 85
4.109965 2.797420 7.065826 78 78 76
4.158579 2.795503 7.051865 73 73 71
4.201445 2.789453 7.027627 82 82 80
4.240742 2.780936 6.997282 81 81 79
4.283696 2.774994 6.973322 81 81 79
4.323648 2.767027 6.944362 84 84 82
4.365965 2.760694 6.919449 81 81 79
4.407975 2.754174 6.894079 79 79 77
4.450216 2.747824 6.869133 75 75 73
4.487418 2.738244 6.836251 73 73 71
4.521623 2.726847 6.798938 88 88 86
4.554303 2.714626 6.759641 91 91 89
4.589936 2.704392 6.725254 77 77 75
4.633810 2.699330 6.703536 77 77 75
4.678158 2.694540 6.682480 86 86 84
4.727190 2.692542 6.668226 72 72 70
4.764720 2.683634 6.637125 87 87 85
4.799757 2.673335 6.602664 85 85 83
4.842576 2.667656 6.579451 85 85 83
4.888405 2.663705 6.560425 82 82 80
4.939802 2.662877 6.548946 82 82 80
4.992301 2.662561 6.538672 80 80 78
5.048007 2.663910 6.532376 83 83 81
5.100797 2.663505 6.521805 79 79 77
5.145939 2.658831 6.500923 70 70 68
5.194249 2.655837 6.484073 75 75 73
5.241677 2.652317 6.465938 80 80 78
5.281205 2.644592 6.437716 67 67 65
5.326269 2.639793 6.416507 86 86 84
5.382353 2.640654 6.408809 88 88 86
5.425826 2.634946 6.385399 91 91 89
5.460690 2.624892 6.351641 81 81 79
5.501031 2.617663 6.324629 81 81 79
5.543790 2.611660 6.300539 75 75 73
5.597109 2.610833 6.288718 83 83 83
5.651679 2.610514 6.278063 84 84 84
5.712934 2.613295 6.274691 69 69 69
5.756965 2.607723 6.251555 86 86 84
5.785684 2.594945 6.211444 78 78 76
5.827907 2.588595 6.186501 81 81 79
5.872397 2.583302 6.164043 81 81 79
5.920524 2.579661 6.145454 84 85 80
5.963747 2.573761 6.121564 78 78 76
6.004011 2.566538 6.094584 78 78 76
6.052500 2.562994 6.076194 79 79 77
6.102404 2.560029 6.059136 80 80 78
6.153613 2.557580 6.043256 76 76 74
6.207360 2.556163 6.029744 72 72 70
6.251659 2.550628 6.006659 81 81 79
6.288097 2.541762 5.975867 77 77 75
6.327270 2.534099 5.947878 77 77 77
6.374809 2.529947 5.927997 66 66 66
6.428180 2.528166 5.913557 78 78 76
6.472942 2.522801 5.890852 82 82 80
6.706473 2.476917 5.723447 81 81 79
6.752327 2.472040 5.701883 77 77 75
6.967412 2.464089 5.641572 74 74 72
7.018508 2.460957 5.623843 82 82 80
7.055788 2.452759 5.594731 66 66 64
7.105052 2.448920 5.575395 68 68 66
7.160547 2.447272 5.560939 76 76 74
7.206193 2.442066 5.538512 73 73 71
7.250941 2.436535 5.515357 72 72 70
7.306676 2.434824 5.500683 76 76 74
7.360665 2.432440 5.484485 66 66 64
7.445326 2.419588 5.434143 70 70 70
7.622801 2.396678 5.339644 74 74 74
7.674288 2.393264 5.321074 69 69 67
7.728509 2.390694 5.304321 77 77 75
7.835724 2.385004 5.269534 73 73 73
7.879734 2.379062 5.245387 73 73 73
7.916060 2.370720 5.216051 72 72 72
7.972686 2.368711 5.200405 69 69 69
8.027493 2.366082 5.183386 67 67 67
8.072065 2.360279 5.159518 69 69 67
8.120481 2.355638 5.138139 72 72 70
8.165777 2.350040 5.114706 73 73 71
8.237165 2.352211 5.107847 73 73 71
8.293599 2.349835 5.091228 81 81 79
0.177083 3.302554 9.020446 105 104 100
0.732880 3.251101 8.779167 116 117 112
0.776413 3.249631 8.767174 99 100 95
0.818709 3.241535 8.737540 97 98 93
0.861084 3.234101 8.709674 82 83 78
0.902563 3.222985 8.672048 85 85 83
0.988850 3.215417 8.635721 90 90 88
1.030463 3.205699 8.601839 89 89 87
1.072683 3.198509 8.574662 91 91 89
1.322736 3.148887 8.394719 84 84 82
1.450333 3.132803 8.327808 75 75 73
1.491741 3.124747 8.298445 76 76 74
1.533899 3.118568 8.274007 75 75 73
1.578069 3.116889 8.261331 75 75 73
1.620844 3.111969 8.240172 77 77 75
1.665483 3.110900 8.229054 82 82 80
1.708580 3.106443 8.209085 78 78 76
1.749818 3.098258 8.179406 78 79 74
1.828247 3.074760 8.101570 89 90 85
2.026679 3.025026 7.930849 110 111 106
2.064342 3.012457 7.890007 104 105 99
2.104347 3.003877 7.859488 113 114 108
2.144284 2.995332 7.829078 105 106 101
2.184541 2.987398 7.800257 100 101 96
2.224254 2.978774 7.769674 94 95 90
2.265512 2.972494 7.745128 97 98 93
2.471416 2.941041 7.622326 100 99 95
2.517937 2.941596 7.615243 94 93 89
2.563180 2.940334 7.603492 97 96 92
2.605117 2.934885 7.581063 101 100 96
2.646921 2.929274 7.558221 97 96 92
2.690140 2.925326 7.539603 106 105 101
2.731800 2.919525 7.516273 101 100 96
2.773795 2.914113 7.493932 101 100 96
2.817001 2.910042 7.474985 107 108 103
2.859213 2.904835 7.453154 95 96 91
2.896887 2.894744 7.418993 98 99 94
2.935121 2.885398 7.386738 102 101 97
2.976043 2.878969 7.361852 105 101 98
3.019233 2.874886 7.342873 87 82 79
3.066931 2.875283 7.335146 80 79 74
3.108465 2.869400 7.311618 95 94 90
3.148651 2.862215 7.284831 95 94 90
3.188607 2.854862 7.257632 94 93 89
3.228113 2.847141 7.229523 92 91 87
3.309625 2.834183 7.179544 89 88 86
3.353770 2.830801 7.162278 82 81 79
3.399107 2.828412 7.147474 81 81 79
3.443706 2.825287 7.130820 82 82 80
3.486545 2.820575 7.110210 88 88 86
3.525789 2.812786 7.081966 83 83 81
3.565427 2.805390 7.054709 78 78 76
3.603677 2.796900 7.024759 88 88 86
3.640468 2.787304 6.992095 75 75 73
3.681360 2.781114 6.967860 80 80 78
3.723573 2.775989 6.946252 84 84 82
3.762860 2.768566 6.918988 78 78 76
3.801989 2.761072 6.891561 80 80 78
3.845559 2.757011 6.872571 84 84 82
3.887798 2.751912 6.851029 84 84 82
3.931149 2.747627 6.831478 75 75 73
3.976794 2.744989 6.815943 79 79 77
4.021153 2.741349 6.797945 84 84 82
4.061286 2.734647 6.772469 95 94 92
4.098521 2.725933 6.742100 89 88 86
4.140146 2.720352 6.719372 73 72 70
4.178238 2.712345 6.690752 82 81 79
4.217224 2.705006 6.663770 81 80 78
4.257690 2.698703 6.639309 88 87 85
4.298917 2.692924 6.616120 87 86 84
4.335080 2.683837 6.584943 81 80 78
4.366583 2.671820 6.546726 78 78 76
4.399734 2.661010 6.511458 88 88 86
4.434101 2.651092 6.478373 78 78 76
4.476299 2.646167 6.457309 78 78 76
4.519993 2.642154 6.438426 77 77 75
4.566443 2.639790 6.423482 76 76 74
4.605679 2.633002 6.397940 84 84 82
4.642234 2.624644 6.368658 83 83 81
4.682334 2.618443 6.344538 81 81 79
4.724633 2.613540 6.323513 80 80 78
4.774393 2.612931 6.312693 79 79 77
4.826183 2.613375 6.304338 74 74 72
4.877850 2.613621 6.295471 83 83 81
4.927716 2.612739 6.283892 84 84 82
4.970203 2.607680 6.262413 78 78 76
5.015596 2.604200 6.244656 79 79 77
5.058125 2.599129 6.223134 77 77 75
5.094594 2.590804 6.193956 84 84 82
5.136348 2.585337 6.171511 81 81 79
5.186832 2.584446 6.159797 73 73 71
5.225540 2.577350 6.133521 74 74 72
5.256392 2.566252 6.097901 70 70 68
5.294106 2.558756 6.070729 76 76 74
5.383720 2.550949 6.033147 74 74 74
5.435423 2.550399 6.022127 71 71 71
5.490208 2.551255 6.014328 75 75 73
5.533930 2.546638 5.993812 74 74 72
5.568342 2.537545 5.962945 71 71 69
5.611510 2.532673 5.941843 76 77 72
5.743389 2.519075 5.880847 72 71 69
5.784979 2.513425 5.857936 87 86 84
5.833011 2.510685 5.841689 76 75 73
5.877821 2.506452 5.822007 78 77 75
5.927619 2.504405 5.807300 78 77 75
5.979873 2.503371 5.794872 91 90 88
6.024142 2.498779 5.774325 88 87 85
6.066762 2.493459 5.752116 81 80 78
6.105659 2.486545 5.726296 85 85 83
6.155934 2.484470 5.711425 81 81 79
6.216541 2.486661 5.706155 85 85 83
6.261116 2.482053 5.685505 77 77 75
6.494922 2.440804 5.531140 75 75 73
6.536686 2.435100 5.508053 74 74 72
6.743330 2.427219 5.448682 71 71 69
6.795205 2.425173 5.433597 79 79 77
6.831389 2.417258 5.405576 89 89 87
6.879302 2.413687 5.387109 70 70 68
6.930057 2.411116 5.370812 78 78 76
6.978677 2.407723 5.352695 72 72 70
7.027490 2.404361 5.334626 75 75 73
7.080873 2.402584 5.319984 74 74 72
7.133047 2.400316 5.304245 85 85 83
7.169883 2.392641 5.276752 75 75 73
7.215535 2.388050 5.255951 73 73 71
7.344871 2.371603 5.187740 69 69 69
7.496291 2.362405 5.135005 74 74 72
7.598236 2.356390 5.099977 74 74 74
7.643010 2.351326 5.078062 74 74 74
7.687257 2.346084 5.055765 76 76 76
7.736590 2.342444 5.036849 74 74 74
7.788104 2.339456 5.019287 65 65 65
7.839539 2.336401 5.001560 75 75 73
7.891480 2.333460 4.984047 66 66 64
7.929589 2.326238 4.957545 71 71 69
7.995720 2.327557 4.948901 68 68 66
8.053302 2.326187 4.934586 60 60 58
8.248319 2.309724 4.854216 63 63 63
8.296743 2.305451 4.833760 70 70 70
8.348995 2.302256 4.815505 67 67 67
0.181094 3.229611 8.697068 92 91 87
0.841355 3.166242 8.403472 97 98 93
0.964836 3.148820 8.333756 92 91 87
1.005196 3.140105 8.302938 92 91 87
1.046046 3.133433 8.277459 100 99 97
1.086333 3.124968 8.247320 87 86 84
1.287593 3.085545 8.104375 97 96 94
1.411664 3.072096 8.045107 82 83 78
1.452667 3.066642 8.022838 89 90 85
1.493454 3.060690 7.999283 84 85 80
1.535887 3.058465 7.985325 83 84 79
1.577472 3.054203 7.966113 93 94 89
1.620957 3.053880 7.957016 86 87 82
1.662277 3.048827 7.935751 88 89 84
1.702617 3.041798 7.909419 94 93 91
1.741759 3.032533 7.877370 90 89 87
1.779934 3.021651 7.841206 87 86 84
1.892043 2.986426 7.726314 87 86 84
1.929183 2.974912 7.688668 90 89 87
1.970035 2.969862 7.667498 95 94 92
2.007042 2.958560 7.630440 88 87 85
2.046657 2.951664 7.604599 85 84 82
2.085842 2.944171 7.577253 100 99 97
2.125424 2.937374 7.551682 82 81 79
2.164932 2.930530 7.526000 91 91 89
2.206303 2.926451 7.507316 93 93 91
2.247812 2.922513 7.488981 87 87 85
2.287699 2.916264 7.464807 95 95 93
2.320894 2.900941 7.417782 80 80 78
2.360724 2.894868 7.394090 85 85 83
2.402569 2.891461 7.377100 87 87 85
2.572929 2.880728 7.316280 99 99 97
2.615972 2.878341 7.301778 83 83 81
2.656198 2.872558 7.278780 98 98 96
2.697269 2.867758 7.258237 95 95 93
2.739106 2.863803 7.239794 102 102 100
2.779122 2.857782 7.216203 96 96 94
2.815568 2.847896 7.183015 92 92 90
2.854289 2.840598 7.156275 93 93 91
2.896344 2.836874 7.138403 95 95 93
2.938690 2.833398 7.121138 89 88 86
2.985248 2.834153 7.114322 91 91 89
3.026261 2.829154 7.093259 96 96 94
3.066249 2.823130 7.069667 98 98 96
3.103154 2.814133 7.038754 98 98 96
3.140431 2.805603 7.009012 91 90 88
3.178370 2.797793 6.981059 96 95 93
3.217966 2.791593 6.957074 87 86 84
3.258867 2.786612 6.936079 94 93 91
3.301884 2.783526 6.919723 91 92 87
3.344648 2.780149 6.902641 86 86 84
3.384274 2.773970 6.878706 94 94 92
3.423488 2.767461 6.853968 97 97 95
3.462232 2.760583 6.828341 96 96 94
3.498536 2.751702 6.797852 100 100 98
3.533959 2.742191 6.765854 105 105 103
3.573859 2.736444 6.743015 94 95 90
3.615307 2.731953 6.723219 99 101 98
3.651433 2.723217 6.693149 106 106 104
3.689363 2.715983 6.666729 107 107 105
3.731359 2.711941 6.648024 106 106 104
3.771037 2.706098 6.624970 105 104 102
3.811320 2.700723 6.603046 109 108 106
3.854598 2.697575 6.586477 113 112 110
3.897730 2.694264 6.569501 115 114 112
3.933893 2.685854 6.540290 108 108 106
3.969611 2.677202 6.510520 105 105 103
4.010819 2.672512 6.490241 108 108 106
4.047278 2.664491 6.462008 101 101 99
4.082779 2.655875 6.432375 96 96 94
4.121150 2.649294 6.407607 100 100 98
4.159966 2.643041 6.383629 106 106 104
4.193714 2.633443 6.351715 94 94 92
4.227414 2.623912 6.319992 104 104 102
4.261544 2.614760 6.289194 96 96 94
4.294789 2.605129 6.257290 106 106 104
4.333876 2.599305 6.234399 116 116 114
4.375607 2.595154 6.215453 100 100 98
4.420521 2.592949 6.201081 115 115 113
4.457613 2.585880 6.175258 99 99 97
4.494555 2.578759 6.149325 105 105 103
4.534046 2.573207 6.127081 107 106 102
4.573540 2.567663 6.104859 121 120 116
4.719265 2.566703 6.074688 120 119 115
4.764145 2.564072 6.059189 124 123 119
4.804317 2.558740 6.037401 122 121 117
4.850259 2.556615 6.023044 117 116 112
4.890299 2.551177 6.001000 113 112 108
4.921896 2.541146 5.968345 112 111 107
4.960333 2.534898 5.944449 105 104 100
5.004306 2.531619 5.927400 111 110 106
5.036757 2.522220 5.896263 103 102 98
5.066802 2.511648 5.862463 117 116 112
5.103352 2.504545 5.836654 105 104 100
5.183079 2.493806 5.792993 99 98 94
5.229535 2.491745 5.778711 93 92 88
5.279450 2.491338 5.768170 91 90 86
5.321942 2.487185 5.749076 88 87 83
5.356327 2.479062 5.720963 97 96 92
5.400236 2.475586 5.703403 87 86 81
5.443934 2.471974 5.685518 87 86 81
5.485809 2.467468 5.665602 86 85 80
5.529685 2.463883 5.647757 84 83 78
5.574468 2.460686 5.630771 81 80 76
5.616495 2.456183 5.610834 84 83 79
5.649583 2.447595 5.581731 90 89 85
5.696229 2.445182 5.566478 78 77 73
5.781350 2.436579 5.527476 87 86 82
5.822347 2.431564 5.506373 75 74 70
5.860499 2.425307 5.482508 81 80 76
5.908556 2.423331 5.468149 75 74 70
5.969895 2.426963 5.466177 72 71 67
6.020435 2.425866 5.453683 75 74 70
6.067858 2.423386 5.438103 77 78 73
6.108502 2.418040 5.416187 71 72 67
6.155324 2.415236 5.399859 82 83 78
6.290532 2.404447 5.345554 72 71 69
6.333214 2.399841 5.325220 84 83 81
6.429502 2.394852 5.293708 77 76 74
6.484626 2.394984 5.283611 76 75 73
6.534449 2.392986 5.268858 77 76 74
6.583738 2.390727 5.253512 85 84 82
6.622112 2.384298 5.229148 85 85 83
6.669911 2.381411 5.212412 77 77 75
6.717699 2.378475 5.195554 73 73 71
6.763207 2.374661 5.176788 75 75 73
6.811915 2.371985 5.160443 85 85 83
6.869615 2.372514 5.150913 73 73 71
6.956346 2.363083 5.109404 75 75 73
7.001637 2.359028 5.090040 87 87 85
7.129992 2.344140 5.026136 89 89 87
7.279124 2.336152 4.976639 73 73 71
7.334042 2.335133 4.963521 79 79 77
7.382288 2.331839 4.945621 82 82 80
7.423610 2.326241 4.922907 86 86 84
7.467043 2.321331 4.901622 83 83 81
7.514266 2.317634 4.882843 67 67 65
7.568754 2.316231 4.868787 87 87 85
7.620418 2.313867 4.852712 75 75 73
7.673160 2.311793 4.837204 76 76 74
7.711893 2.305290 4.812573 85 85 83
7.770944 2.305098 4.800872 87 87 87
8.028277 2.291613 4.716255 72 72 70
8.074566 2.287254 4.695892 74 74 72
8.107657 2.279003 4.667685 79 79 77
0.823133 3.103786 8.120029 89 89 87
0.981483 3.078394 8.022680 84 83 81
1.021204 3.072777 8.000235 73 72 70
1.256580 3.031419 7.846058 72 72 70
1.537143 3.000731 7.711066 72 72 70
1.578939 2.999809 7.700523 80 80 78
1.618932 2.994896 7.679870 84 84 82
1.658680 2.989472 7.657922 75 74 72
1.696131 2.979550 7.624634 92 91 89
1.733488 2.969699 7.591547 95 94 92
1.842256 2.935685 7.481239 93 92 90
1.879104 2.925963 7.448592 98 97 95
1.918552 2.920829 7.427463 101 100 98
1.954637 2.910169 7.392505 100 99 97
1.994832 2.906354 7.374690 100 99 97
2.032471 2.898468 7.346700 81 80 78
2.071367 2.892629 7.323831 87 86 84
2.110687 2.887454 7.302622 94 94 92
2.149536 2.881587 7.279689 85 85 83
2.303983 2.857102 7.185480 89 89 87
2.343240 2.851928 7.164284 94 94 92
2.504932 2.836949 7.093583 88 88 86
2.546598 2.834573 7.079250 74 74 72
2.585572 2.828909 7.056827 82 82 80
2.625781 2.824696 7.037965 81 81 79
2.665340 2.819707 7.017195 83 83 81
2.703541 2.813184 6.992671 86 86 84
2.739753 2.804511 6.962896 93 93 91
2.778244 2.798428 6.939467 98 98 96
2.821805 2.797788 6.929319 95 95 93
2.863662 2.795209 6.914419 88 88 86
2.905782 2.792818 6.899963 92 92 90
2.945197 2.787586 6.878585 92 92 90
2.983339 2.781082 6.854119 97 97 95
3.019080 2.772250 6.824022 104 104 102
3.058313 2.766919 6.802418 109 108 106
3.096569 2.760658 6.778569 86 85 83
3.135359 2.754931 6.756015 99 98 96
3.173562 2.748676 6.732190 104 103 101
3.213955 2.744452 6.713266 105 106 101
3.252890 2.738889 6.691111 99 99 97
3.291340 2.732904 6.667948 101 101 99
3.329489 2.726679 6.644212 97 97 95
3.365999 2.719068 6.617165 105 105 103
3.401429 2.710606 6.588095 95 95 93
3.435640 2.701211 6.556818 89 89 87
3.472982 2.694523 6.532024 101 102 97
3.511940 2.689194 6.510481 96 96 94
3.546026 2.679946 6.479612 94 94 92
3.581407 2.671835 6.451471 84 84 82
3.621532 2.667521 6.432363 90 89 87
3.659900 2.661826 6.409974 97 96 94
3.698039 2.655969 6.387207 97 96 94
3.738605 2.651962 6.368814 88 87 85
3.779359 2.648065 6.350676 97 96 94
3.814761 2.640200 6.323175 103 102 100
3.849812 2.632146 6.295250 94 93 91
3.890291 2.628059 6.276666 102 101 99
3.926538 2.620946 6.250973 94 93 91
3.960485 2.612271 6.221633 97 96 94
3.996686 2.605239 6.196163 100 99 97
4.033999 2.599013 6.172586 91 90 88
4.068015 2.590585 6.143881 106 105 103
4.102066 2.582258 6.115432 103 102 98
4.136274 2.574108 6.087420 94 93 91
4.170099 2.565779 6.059011 97 96 94
4.207781 2.560010 6.036561 87 86 84
4.248884 2.556436 6.019201 92 91 89
4.289955 2.552807 6.001702 96 95 93
4.326085 2.546066 5.977007 96 95 93
4.364249 2.540614 5.955298 104 103 101
4.401928 2.534875 5.932927 104 103 99
4.438836 2.528684 5.909523 96 95 91
4.480906 2.525595 5.893245 94 93 89
4.524142 2.523148 5.878424 103 102 98
4.574840 2.524996 5.873413 104 103 99
4.617221 2.521897 5.857048 98 97 93
4.655994 2.516695 5.835873 97 96 92
4.703352 2.516343 5.825744 96 95 91
4.746568 2.513577 5.810089 108 107 103
4.774870 2.502510 5.775578 106 105 101
4.811721 2.496245 5.751992 104 103 99
4.850940 2.491287 5.731370 107 106 102
4.879514 2.480617 5.697845 102 101 97
4.906517 2.469224 5.662730 102 101 97
4.943169 2.463029 5.639364 98 97 93
5.059213 2.447675 5.576556 111 110 106
5.104962 2.446127 5.563602 109 108 104
5.142633 2.440469 5.541447 128 127 123
5.177137 2.433254 5.515825 120 119 115
5.217325 2.428866 5.496511 124 123 119
5.257680 2.424546 5.477339 129 128 124
5.297053 2.419738 5.457081 129 128 124
5.338850 2.416080 5.439363 134 133 129
5.385363 2.414618 5.426491 130 129 125
5.424301 2.409547 5.405627 131 130 126
5.582317 2.390272 5.324379 128 127 123
5.617732 2.383615 5.300041 134 133 129
5.745798 2.373281 5.248053 140 139 135
5.795434 2.372765 5.237050 136 135 131
5.847643 2.373263 5.228205 128 129 124
5.894010 2.371192 5.213760 92 93 88
5.945273 2.371116 5.203595 97 98 93
6.094326 2.368426 5.167563 99 98 96
6.139075 2.365384 5.150888 102 101 99
6.235891 2.362098 5.123449 100 99 97
6.285716 2.360920 5.110675 93 92 90
6.335419 2.359626 5.097619 102 101 99
6.385182 2.358288 5.084435 91 90 88
6.424759 2.352972 5.062806 92 92 90
6.470433 2.349978 5.046079 88 88 86
6.516791 2.347205 5.029797 85 85 83
6.563281 2.344440 5.013508 90 90 88
6.610913 2.342057 4.998000 91 91 89
6.802683 2.332499 4.935660 84 84 82
6.847340 2.328821 4.917337 87 87 85
6.891455 2.324925 4.898549 82 82 80
6.933578 2.320309 4.878257 81 81 79
6.968316 2.313115 4.852645 82 82 80
7.012359 2.309159 4.833712 84 84 82
7.070979 2.310165 4.824954 90 90 88
7.122386 2.308625 4.810919 73 73 71
7.172448 2.306571 4.795801 78 79 74
7.213031 2.301301 4.774096 90 91 86
7.255672 2.296710 4.753773 82 82 80
7.297144 2.291724 4.732640 82 82 80
7.351219 2.290841 4.719811 87 87 85
0.843790 3.036337 7.824041 88 87 85
0.997992 3.016143 7.741120 85 85 83
1.227845 2.981677 7.606233 89 89 87
1.267371 2.979398 7.592467 77 77 75
1.307369 2.978159 7.581297 93 93 91
1.499079 2.950076 7.470509 86 86 84
1.538374 2.946609 7.453718 87 87 85
1.576925 2.941488 7.432801 89 89 87
1.615991 2.937420 7.414501 86 85 83
1.651780 2.926795 7.379904 82 81 79
1.687836 2.916978 7.347344 81 80 78
1.722872 2.905490 7.310668 87 86 84
1.756476 2.891703 7.268332 87 86 84
1.793575 2.884597 7.242572 88 87 85
1.829579 2.875681 7.212350 87 86 84
1.867802 2.870726 7.191928 87 86 84
1.902880 2.860541 7.158608 94 93 91
1.940807 2.855218 7.137293 80 79 77
1.977233 2.847525 7.110150 92 91 89
2.014722 2.841601 7.087366 93 92 90
2.051157 2.834112 7.060748 88 88 86
2.088986 2.828802 7.039487 94 94 92
2.280552 2.805667 6.941519 86 86 84
2.320144 2.802677 6.925903 82 82 80
2.359579 2.799408 6.909595 91 91 89
2.397919 2.794685 6.889748 87 87 85
2.436079 2.789727 6.869330 81 81 79
2.476478 2.787501 6.855527 97 97 95
2.515060 2.782995 6.836193 93 93 91
2.554433 2.779403 6.819063 92 92 90
2.592050 2.773726 6.796893 85 85 83
2.630199 2.768677 6.776241 87 87 85
2.666255 2.761285 6.749951 90 90 88
2.702879 2.754598 6.725368 94 94 92
2.741678 2.750318 6.706574 87 87 85
2.781171 2.746753 6.689492 85 85 83
2.822651 2.745223 6.677271 96 96 94
2.860722 2.740066 6.656357 90 90 88
2.897904 2.734011 6.633297 93 93 91
2.935598 2.728499 6.611538 98 98 96
2.972094 2.721822 6.587006 95 94 92
3.008455 2.715064 6.562293 89 88 86
3.046939 2.710383 6.542528 98 97 95
3.085698 2.705951 6.523349 97 96 94
3.124069 2.701141 6.503272 91 90 86
3.163615 2.697399 6.485718 99 98 96
3.203290 2.693735 6.468344 96 95 93
3.239181 2.686674 6.442941 89 88 86
3.274176 2.678886 6.415836 96 95 93
3.309162 2.671165 6.388908 106 105 103
3.342875 2.662435 6.359623 98 97 95
3.378013 2.655002 6.333408 88 87 83
3.415637 2.649693 6.312188 102 101 99
3.449807 2.641569 6.284379 82 81 79
3.484051 2.633586 6.256923 101 100 98
3.521193 2.627988 6.235051 98 97 95
3.557861 2.622033 6.212352 110 109 107
3.594934 2.616416 6.190447 91 90 88
3.633493 2.611953 6.171227 91 90 88
3.672479 2.607799 6.152722 97 96 94
3.708283 2.601248 6.128654 100 99 97
3.743313 2.594164 6.103364 97 96 94
3.781324 2.589303 6.083226 94 93 91
3.816777 2.582598 6.058829 89 88 86
3.850966 2.575036 6.032470 88 87 85
3.886401 2.568410 6.008283 86 85 83
3.921973 2.561919 5.984416 103 102 100
3.956195 2.554537 5.958515 81 80 78
3.989475 2.546572 5.931296 90 89 85
4.021580 2.537890 5.902455 95 94 90
4.055047 2.530195 5.875896 92 91 87
4.092394 2.525103 5.855291 96 95 93
4.130975 2.520812 5.836513 104 103 101
4.168609 2.515899 5.816316 90 89 87
4.208207 2.512228 5.798939 100 99 97
4.247118 2.508099 5.780513 91 90 88
4.281411 2.501094 5.755572 102 101 97
4.317381 2.495159 5.733066 96 95 91
4.358600 2.492424 5.717783 93 92 88
4.403059 2.491582 5.706749 84 83 79
4.449419 2.491777 5.698019 101 100 98
4.490280 2.488639 5.681768 104 103 101
4.529847 2.484712 5.663733 85 84 82
4.573249 2.482963 5.650567 81 80 78
4.615991 2.480772 5.636388 93 92 90
4.649189 2.473158 5.610092 94 93 91
4.685322 2.467232 5.587573 92 91 89
4.721655 2.461433 5.565345 80 79 77
4.753143 2.453011 5.537300 92 91 89
4.782112 2.443298 5.506421 90 89 87
4.817390 2.437051 5.483243 84 83 81
4.852364 2.430668 5.459774 85 84 82
4.896192 2.428949 5.446599 88 87 83
4.937817 2.426023 5.430745 94 93 89
4.978402 2.422524 5.413612 91 90 86
5.015083 2.417011 5.392054 102 101 97
5.049859 2.410549 5.368422 108 107 103
5.085033 2.404314 5.345297 93 92 88
5.121468 2.398726 5.323593 100 99 95
5.162110 2.395207 5.306400 102 101 97
5.203535 2.392040 5.289960 94 93 89
5.245873 2.389277 5.274384 87 86 82
5.282364 2.383693 5.252678 91 90 86
5.309423 2.373677 5.221397 87 86 82
5.357712 2.373661 5.211735 91 90 86
5.407821 2.374394 5.203649 90 89 85
5.444366 2.368810 5.181932 82 81 77
5.474899 2.360507 5.154387 88 87 83
5.500726 2.350149 5.122465 84 83 79
5.539353 2.345592 5.102990 87 86 82
5.592729 2.347541 5.097395 91 90 86
5.630328 2.342461 5.076772 81 80 76
5.675020 2.340459 5.062695 96 97 92
5.722645 2.339666 5.051155 108 108 106
5.771894 2.339489 5.040889 92 92 90
5.918435 2.337957 5.007736 97 97 95
6.102906 2.330464 4.951618 92 92 90
6.150295 2.328961 4.938292 102 102 100
6.198874 2.327867 4.925785 94 94 92
6.241104 2.324224 4.907954 92 92 90
6.283628 2.320670 4.890296 101 101 99
6.421091 2.313594 4.844619 91 91 89
6.477294 2.315036 4.837151 93 93 91
6.530559 2.315277 4.827164 81 81 79
6.571183 2.310771 4.807421 87 87 85
6.612592 2.306540 4.788237 89 89 87
6.652950 2.301914 4.768238 82 82 80
6.740264 2.294991 4.732948 81 81 79
6.875434 2.285868 4.682436 89 89 87
6.925748 2.284576 4.669074 90 90 88
6.970371 2.281272 4.651642 88 89 84
7.015574 2.278136 4.634530 77 78 73
7.060207 2.274774 4.616950 75 75 73
7.100614 2.269970 4.596480 84 84 82
7.150720 2.268381 4.582391 90 90 88
7.201779 2.267050 4.568778 85 85 83
7.251980 2.265378 4.554455 86 86 84
7.286130 2.258444 4.529727 84 84 82
7.342129 2.258570 4.518897 81 80 78
7.386396 2.254866 4.500504 83 82 78
7.495245 2.253778 4.476009 102 101 97
0.080626 3.049790 7.901909 81 80 78
0.191746 3.050307 7.880573 73 72 70
0.790641 2.993125 7.612675 89 88 86
0.827438 2.985431 7.585554 83 82 80
0.865216 2.982190 7.569588 84 83 81
0.977235 2.966722 7.507310 93 93 91
1.163622 2.940350 7.402067 80 80 78
1.200875 2.935082 7.381038 80 80 78
1.238838 2.931780 7.364881 84 84 82
1.277293 2.929667 7.351654 81 81 79
1.315153 2.925842 7.334181 81 81 79
1.387540 2.910006 7.279045 83 83 81
1.463903 2.903827 7.247720 78 78 76
1.501305 2.898873 7.227465 79 79 77
1.538038 2.892499 7.203723 86 86 84
1.575908 2.888551 7.185935 88 87 85
1.610447 2.877866 7.151648 81 80 78
1.644978 2.867470 7.118100 93 92 90
1.678958 2.856308 7.082710 88 87 85
1.711537 2.842865 7.041790 94 93 91
1.747271 2.835550 7.015852 85 84 82
1.782130 2.826808 6.986455 82 81 79
1.818221 2.820374 6.962689 86 85 83
1.852725 2.811339 6.932617 96 95 93
1.889180 2.805703 6.910815 90 89 87
1.924328 2.798000 6.884007 94 93 91
1.960783 2.792475 6.862487 94 93 91
1.997314 2.787096 6.841324 94 93 91
2.034745 2.783092 6.823483 90 90 88
2.072475 2.779493 6.806615 82 82 80
2.219450 2.759242 6.725014 86 86 84
2.258520 2.757299 6.712096 89 89 87
2.296707 2.754091 6.696129 84 84 82
2.333443 2.748956 6.675547 90 90 88
2.370411 2.744125 6.655693 99 99 97
2.409028 2.741332 6.640697 96 96 94
2.446982 2.737658 6.623592 87 87 85
2.485820 2.734999 6.608894 86 86 84
2.522058 2.729210 6.586745 89 89 87
2.558486 2.723672 6.565197 92 92 90
2.593973 2.717089 6.541178 90 90 88
2.630171 2.711354 6.519176 90 90 88
2.668079 2.707524 6.501680 93 93 91
2.706378 2.704081 6.485094 85 85 83
2.746009 2.702008 6.471727 90 90 88
2.783137 2.697228 6.451972 80 80 78
2.819819 2.691987 6.431129 84 84 82
2.854711 2.684943 6.406054 79 78 76
2.890673 2.679032 6.383651 99 98 96
2.926433 2.672953 6.360860 99 98 96
2.963396 2.668075 6.340885 87 86 84
3.000679 2.663502 6.321624 88 87 85
3.038521 2.659444 6.303563 94 93 89
3.076544 2.655530 6.285831 96 95 93
3.114707 2.651718 6.268329 95 94 92
3.150818 2.646026 6.246455 91 90 88
3.185488 2.639079 6.221673 92 91 89
3.220560 2.632541 6.197852 87 86 84
3.254021 2.624656 6.170925 99 98 96
3.287047 2.616483 6.143351 95 94 90
3.322454 2.610399 6.120620 90 89 87
3.356444 2.603173 6.095263 102 101 99
3.391167 2.596607 6.071444 93 92 90
3.427301 2.591226 6.050355 98 97 95
3.463012 2.585521 6.028528 91 90 88
3.499115 2.580146 6.007463 96 95 93
3.536363 2.575674 5.988465 86 85 83
3.574589 2.571943 5.971158 91 90 88
3.610118 2.566140 5.949118 99 98 94
3.645719 2.560414 5.927260 95 94 90
3.683113 2.556035 5.908471 97 96 92
3.717924 2.549758 5.885368 93 92 88
3.751702 2.542770 5.860665 99 98 94
3.786108 2.536281 5.837102 95 94 90
3.819493 2.529111 5.812015 98 97 93
3.851664 2.521151 5.785159 93 92 88
3.884867 2.513974 5.760088 92 91 87
3.917731 2.506619 5.734635 105 104 100
3.950456 2.499230 5.709122 104 103 99
3.985517 2.493451 5.687238 104 103 101
4.021333 2.488190 5.666521 98 97 95
4.057797 2.483360 5.646771 98 97 95
4.096866 2.480204 5.630759 101 100 98
4.136100 2.477115 5.614886 103 102 100
4.171324 2.471469 5.593307 96 95 93
4.206926 2.466075 5.572296 98 97 95
4.247705 2.463877 5.558379 104 103 101
4.289778 2.462410 5.546062 94 93 91
4.334915 2.462716 5.537639 100 99 97
4.374607 2.459670 5.521780 93 92 90
4.412970 2.455803 5.504100 97 96 94
4.454454 2.453736 5.490371 100 99 97
4.495693 2.451469 5.476184 101 100 98
4.530131 2.445265 5.453345 95 94 92
4.565762 2.439763 5.432051 90 89 87
4.602280 2.434771 5.411876 98 97 95
4.633384 2.426783 5.385167 93 92 90
4.663911 2.418542 5.357929 109 108 106
4.703328 2.415193 5.341354 97 96 94
4.740621 2.410673 5.322227 99 98 96
4.784081 2.409428 5.310193 90 89 87
4.824284 2.406396 5.294267 97 96 94
4.864933 2.403562 5.278752 101 100 98
4.899707 2.397653 5.256596 98 97 95
4.933498 2.391261 5.233409 88 87 85
4.965306 2.383894 5.208139 99 98 96
4.998385 2.377213 5.184360 96 95 93
5.040755 2.375185 5.170551 95 94 92
5.080724 2.371922 5.154081 104 103 101
5.121789 2.369163 5.138676 88 87 85
5.153924 2.362050 5.113986 87 86 84
5.181694 2.352888 5.084964 96 95 93
5.224997 2.351175 5.071767 90 89 87
5.267650 2.349098 5.057776 95 94 92
5.302785 2.343470 5.036261 88 87 85
5.337494 2.337658 5.014367 97 96 94
5.368368 2.330111 4.988827 96 95 93
5.407262 2.326246 4.971043 107 106 104
5.457520 2.327467 4.963911 91 90 88
5.499828 2.325041 4.949100 101 100 98
5.539268 2.321307 4.931539 99 98 96
5.583447 2.319624 4.918242 102 102 100
5.628853 2.318418 4.905910 90 90 88
5.678644 2.319031 4.897324 90 90 88
5.723020 2.317242 4.883716 85 85 83
5.761704 2.312997 4.865005 96 96 94
5.805402 2.310838 4.850592 93 93 91
5.840669 2.305134 4.828857 92 92 90
5.933044 2.302675 4.803756 92 92 90
5.977725 2.300743 4.789720 89 89 87
6.023655 2.299261 4.776577 81 81 79
6.064700 2.295778 4.759329 92 92 90
6.107937 2.293135 4.743777 84 84 82
6.244711 2.287697 4.702028 87 87 85
6.351694 2.289792 4.685561 94 94 92
6.390131 2.285043 4.665617 88 88 86
6.433814 2.282243 4.649572 88 88 86
6.474689 2.278372 4.631366 82 82 80
6.559577 2.271712 4.597081 80 80 78
6.593756 2.265365 4.573928 77 77 75
6.692609 2.263547 4.549140 83 83 81
6.748225 2.264718 4.540789 87 87 85
6.789855 2.260911 4.522593 80 81 76
6.836108 2.258683 4.507485 83 84 79
6.881146 2.255996 4.491450 85 85 83
6.919139 2.250870 4.470634 82 82 80
6.967128 2.249125 4.456403 78 78 76
7.018366 2.248420 4.444160 77 77 75
7.069507 2.247615 4.431682 82 82 80
7.106616 2.242108 4.410074 81 81 79
7.164030 2.243265 4.401320 77 76 74
7.208209 2.240020 4.384040 80 79 77
7.261515 2.239695 4.372344 84 83 81
7.314661 2.239245 4.360363 93 92 88
7.339773 2.229810 4.331185 106 105 101
7.367447 2.221249 4.303713 112 111 107
7.392046 2.211777 4.274546 109 108 104
7.427675 2.205800 4.252040 117 116 112
7.473216 2.202894 4.235347 125 124 119
7.523165 2.201305 4.221114 120 119 114
7.573601 2.199812 4.207026 124 123 118
7.597202 2.190171 4.177628 124 123 118
0.086952 3.002774 7.676310 72 71 69
0.194936 3.001937 7.651702 79 78 76
0.557896 2.969939 7.495572 70 69 67
0.738966 2.944524 7.393905 79 78 76
0.775300 2.940118 7.375249 77 76 74
0.811164 2.933547 7.351245 89 88 86
0.848080 2.931655 7.338793 84 83 81
0.884460 2.927303 7.320263 78 77 75
0.920501 2.921599 7.298402 74 73 71
0.957033 2.917785 7.281196 85 84 82
0.993396 2.913287 7.262304 89 89 87
1.101421 2.896364 7.197221 76 76 74
1.137782 2.891906 7.178427 77 77 75
1.174021 2.887070 7.158710 74 74 72
1.211297 2.885107 7.146004 82 81 79
1.248615 2.883060 7.133079 81 81 79
1.428470 2.855062 7.025166 92 92 90
1.465259 2.851410 7.008311 79 79 77
1.500732 2.844868 6.984462 88 88 86
1.536421 2.838875 6.961948 83 82 80
1.569975 2.828615 6.929145 92 91 89
1.604071 2.819715 6.899649 73 72 70
1.637239 2.809239 6.866385 89 88 86
1.668775 2.795993 6.826490 91 90 88
1.703972 2.789863 6.803735 84 83 81
1.738501 2.782606 6.778283 104 103 101
1.771637 2.773042 6.747318 86 85 83
1.805499 2.764936 6.719869 84 83 81
1.842131 2.761593 6.703825 82 81 79
1.876358 2.754277 6.678288 83 82 80
1.911422 2.748404 6.656207 77 76 74
1.947957 2.744871 6.639706 91 90 88
1.984637 2.741508 6.623601 86 85 83
2.020388 2.736703 6.604064 95 94 92
2.088699 2.722531 6.554177 88 87 85
2.124543 2.717954 6.535194 76 75 73
2.163270 2.717341 6.525581 85 84 82
2.201171 2.715456 6.512942 92 91 89
2.237787 2.711761 6.496015 96 95 93
2.272841 2.705997 6.474211 79 78 76
2.309093 2.701799 6.456096 79 78 76
2.347504 2.700288 6.444291 81 80 78
2.384305 2.696680 6.427546 91 91 89
2.421413 2.693405 6.411574 97 97 95
2.457496 2.688859 6.392619 92 92 90
2.493705 2.684455 6.373995 91 91 89
2.526954 2.676639 6.347402 100 100 98
2.562229 2.671213 6.326401 94 94 92
2.599565 2.668100 6.310791 101 101 99
2.636215 2.664185 6.293303 92 92 90
2.673099 2.660493 6.276332 83 82 80
