0.254606 -0.152308 1.518853
2.891768 -0.123034 3.671422
-2.297498 0.311208 2.367661
-1.495270 0.641785 1.729806
-0.131354 -0.155466 1.437732
-2.792783 -2.555368 4.440268
-4.381677 -1.543132 4.339981
0.971575 0.949934 1.759478
-0.728484 0.161249 1.304748
2.780067 -1.020818 4.224087
-0.911282 0.124025 1.239977
-2.951073 -1.147125 4.906204
2.579497 -1.156019 5.028713
3.140344 0.700843 3.105200
0.125909 -0.308603 1.298079
2.940226 0.256067 3.349168
1.159876 0.952178 1.816491
2.834839 -1.421406 4.087943
-0.466632 0.210657 1.394356
-0.553720 0.281707 1.421270
0.165510 0.539262 1.706357
-0.133816 -0.311809 1.404365
-0.464707 0.061106 1.356786
-0.785757 0.447144 1.397505
-1.541671 0.696136 1.576005
2.690023 -1.081304 4.548290
1.434407 0.976361 1.848772
2.913414 -1.146575 3.717425
-0.719287 0.114481 1.297395
0.406236 0.599055 2.481489
-0.992271 0.455201 1.372159
-1.162437 0.744874 1.548646
-0.968175 0.335148 1.303471
-0.856319 -0.028011 1.289085
-0.540067 0.630383 2.045528
3.093703 -1.709564 3.119605
-4.063769 -1.159913 4.576526
0.048550 -0.552677 1.273124
-0.856832 0.344862 1.321074
2.897641 -1.702266 3.851580
0.948567 0.853818 1.985960
2.943275 0.242084 3.337722
2.834899 -1.838880 4.088030
-1.329736 -2.488231 4.891043
1.180196 0.926298 1.894896
2.644466 0.811312 2.666606
-0.043100 -0.502782 1.326159
-0.336512 0.843590 1.551221
1.665114 -0.046018 4.626438
-4.398189 -0.688134 4.322733
-3.387702 -1.263080 4.762197
-0.678129 0.191446 1.336691
-0.852954 0.706206 1.721238
-3.347318 -0.899638 4.922666
-0.306746 0.792470 1.688976
0.631366 0.748181 2.153345
-3.441248 -0.269869 3.517888
-2.726260 -0.069798 3.212209
0.688279 0.838828 1.933431
-2.790869 -0.252070 3.660697
-4.590768 -0.873506 4.582706
0.219833 0.902864 1.613604
-1.422705 0.707788 1.574388
-4.363588 -1.122057 4.496847
-4.146310 -0.619835 4.204916
3.041244 0.594687 3.330262
2.743225 -2.150448 4.432384
-0.051426 0.427381 1.799632
-0.800247 0.042311 1.272319
2.815627 -0.785421 4.037392
0.643888 0.632353 2.459375
0.716242 0.837315 1.947576
0.389793 0.673443 2.272121
-0.280115 0.856934 1.542343
-0.036450 0.403803 1.758513
4.696508 -3.300663 11.429075
4.386021 -4.182642 12.598429
0.084074 -0.349973 1.281553
-2.054907 -2.136638 4.791817
1.353000 0.897354 2.031548
1.931622 0.868563 2.292508
2.376106 -0.173851 5.187825
-1.376937 0.715634 1.564503
-3.059106 -0.107826 3.217587
-0.537559 0.768078 1.664861
3.575686 -2.475758 11.150620
0.822868 0.487669 2.923878
-0.333738 0.018899 1.387806
0.463255 0.933871 1.623439
4.165603 -4.242070 10.234839
1.717935 0.745631 2.549460
2.389522 0.364084 3.788817
3.817171 -4.051137 12.202326
3.073462 -1.012593 3.123916
2.690731 -1.063720 4.549487
1.588791 -0.276882 5.209578
-0.797617 0.492893 1.418600
-0.616589 0.634338 2.007200
2.778571 -0.464784 4.147624
-0.756500 0.252588 1.326947
1.860506 0.923585 2.128790
2.916840 -1.864163 3.721797
0.626103 0.670582 2.356131
1.238679 0.671469 2.572217
2.009307 0.848760 2.362700
-0.593904 0.023236 1.324327
-1.870285 -2.626793 4.659778
-0.779810 0.082238 1.271560
2.641177 -0.375048 4.650849
1.588625 -0.253138 5.142861
3.006718 -0.945294 3.364748
2.855699 -1.471109 4.004715
0.068318 -0.431317 1.269132
-1.927117 -1.855165 4.996786
-2.537035 -0.292984 3.819201
-1.247661 -2.611597 4.870344
-2.096148 -1.949152 4.887988
-2.836947 -0.109982 3.281929
1.637164 -0.353105 5.438165
3.064192 -0.737951 3.053598
2.821739 0.703522 3.012235
-0.189227 0.697798 1.985890
1.792184 0.250918 3.879689
-1.492446 -0.713616 5.261687
0.937092 0.899327 1.869766
-1.117564 0.745341 1.562375
-3.095391 -0.871624 4.983572
-2.410333 -1.283592 5.064511
-0.763492 0.403061 1.396904
1.322798 0.480615 3.100626
-0.555340 0.368327 1.454732
0.087615 -0.502505 1.260157
-0.045376 0.876019 1.587919
2.848831 -0.466242 3.888102
-2.961306 -2.077076 4.538318
-0.238572 0.143818 1.437870
-2.314391 -2.553758 4.562002
0.613302 0.942702 1.650057
-0.963311 0.217314 1.244331
-0.406208 0.161277 1.393546
-4.037798 -1.529465 4.448972
2.930008 -0.115458 3.445331
-2.920719 -0.512116 4.270652
1.952574 0.864855 2.306633
-2.895279 -1.323114 4.845055
3.312957 0.467009 3.449904
0.092929 0.306282 1.609019
-0.693112 -2.196159 5.152210
-2.242243 -0.777057 5.134693
-4.462431 -0.926991 4.580186
-3.870856 -1.753820 4.398144
-0.080287 -0.132400 1.432545
-4.319915 -1.320639 4.451841
2.548303 -0.769476 5.084594
-1.135158 0.796232 1.423030
-0.239702 0.246792 1.479675
-3.469145 -1.190564 4.771403
-0.392490 0.094928 1.383740
2.852666 0.316393 3.752651
2.891355 -0.655093 3.745540
-1.897743 -2.169254 4.822488
1.481760 0.528759 3.027652
0.996095 0.961016 1.741987
0.124058 0.248524 1.603317
0.137261 0.268628 1.610594
-0.692143 0.173945 1.323369
3.092434 -1.611392 3.143201
2.961637 -1.337497 3.564767
-2.733357 -0.097073 3.281256
3.030169 -0.616167 3.104679
3.281307 0.613557 3.361993
-1.605179 -0.907655 5.433615
2.953803 -0.706228 3.489413
3.014658 -0.586045 3.139275
-0.555574 -0.125659 1.485895
-0.039123 -0.239455 1.369099
2.923346 -0.531224 3.603787
-1.111614 -2.063473 5.124209
-0.042455 -0.392645 1.306303
0.833899 0.681729 2.395295
-3.640574 -0.919670 4.824898
-0.285889 -0.030279 1.393483
-0.553497 0.537825 2.264694
-1.976965 0.374170 2.297486
1.013239 0.327693 3.410125
0.872280 0.704802 2.346825
1.377874 -0.401099 5.510678
0.095135 0.436472 1.647223
-2.279135 0.219312 2.601197
2.803735 -1.225099 4.185187
-1.887808 -1.874697 4.996541
-3.332957 -2.014778 4.440301
0.126520 -0.096394 1.484555
-0.487329 -0.145421 1.509294
-0.308213 0.632695 2.106728
4.158304 -4.749713 11.681003
1.385257 0.713987 2.508638
-2.502548 -2.455573 4.546081
-2.265727 -1.090857 5.188470
-3.625209 -1.469692 4.589707
-2.906391 -2.495872 4.427532
-2.853700 -0.233432 3.595075
2.936765 -1.050616 3.637928
0.326989 -0.394133 1.328613
2.907184 0.063495 3.618876
-0.568148 0.242472 1.388383
3.123026 0.305990 3.319955
-1.597402 -1.501755 5.200068
-4.042976 -2.221948 4.083869
-1.144016 0.757013 1.524105
2.551508 0.789990 2.701130
1.899983 0.813767 2.424319
0.103168 -0.346540 1.268979
-0.180213 -0.279829 1.468075
-2.377479 0.295624 2.392045
0.660039 0.940986 1.670013
-2.150618 -1.155779 5.205540
-1.239096 0.783687 1.420553
1.829824 1.009658 1.897708
1.229698 0.652465 2.617559
0.843227 0.755411 2.199010
-0.346764 0.290552 1.465894
-0.561603 0.139974 1.346562
3.718375 -5.754400 12.681931
0.328572 -0.270818 1.450696
-1.377279 0.748959 1.472949
-0.313549 -0.097757 1.419687
0.180948 0.898428 1.605676
-3.725091 -2.376799 4.158360
0.003815 -0.274045 1.354035
-1.412887 -2.714868 4.782696
-0.775812 0.255585 1.315546
1.819630 0.471960 3.295268
1.278581 0.959232 1.843761
-3.865695 -0.563066 4.151640
-0.143900 -0.208112 1.450459
-1.117748 -1.396897 5.345885
-0.036066 0.269712 1.740013
0.003830 -0.264480 1.359536
0.178907 -0.160491 1.484199
-4.389679 -1.137334 4.487441
0.532152 0.705839 2.233449
1.817859 -0.527494 5.960682
-0.251766 0.258880 1.482335
-0.373195 0.202445 1.413491
1.279434 0.544073 2.918449
1.777805 -0.280906 5.285299
4.058475 -4.969113 11.657583
0.066861 -0.318501 1.339713
2.461770 -1.012059 5.421306
-2.022735 0.430048 2.127526
-1.539501 -2.057484 5.011579
-2.583481 -0.273383 3.755993
-1.745094 0.565450 1.858513
2.962412 -0.239196 3.286303
0.165731 -0.366653 1.252561
2.957247 0.318013 3.309386
2.878226 -2.114613 3.886590
2.740819 0.207626 4.240300
-2.296916 -2.023823 4.747908
-3.491468 -0.442578 3.949467
0.634946 0.356689 3.190306
-1.230387 -1.194464 5.379771
1.267510 0.470497 3.114257
-0.244129 0.577362 2.280334
0.102955 -0.067070 1.480777
-1.771623 0.572130 1.833140
0.732499 0.876873 1.853349
-1.763321 -0.776693 5.269030
-2.477276 -1.432367 4.959801
-1.989221 -1.534708 5.105865
-0.658405 0.473004 1.442904
-0.232079 0.098281 1.432623
-3.444071 -1.069041 4.814876
-0.167397 -0.254795 1.456806
2.859380 -0.490738 3.840790
-0.523361 0.568860 2.212433
0.080354 0.319130 1.610077
3.054596 0.081798 3.220342
-0.881612 0.734644 1.648526
-0.032973 -0.291720 1.337544
-2.533668 -2.008604 4.669183
2.820774 -2.012246 4.114223
-0.900454 0.277277 1.272817
1.139192 0.876369 2.019961
1.272585 0.975888 1.794496
-3.676802 -1.461563 4.564322
-0.553357 0.295657 1.434790
-0.351071 0.513332 2.399673
1.168450 0.739212 2.368481
0.139614 -0.421041 1.238894
3.074272 0.526340 3.395611
-3.916541 -1.284564 4.572373
-1.025635 0.760816 1.543970
-0.827554 0.111241 1.260677
-0.109708 0.434123 1.957516
0.904372 0.536842 2.820245
2.435410 -0.263986 5.363255
-0.384267 0.585958 2.211375
-0.653361 -0.072963 1.372819
-0.576695 0.075718 1.332595
1.631984 0.166446 4.048803
-3.907793 -1.317530 4.562160
-0.114700 0.732163 1.912663
2.323767 0.472324 3.489168
3.251537 -1.763434 9.446204
-0.240994 0.782529 1.740638
-0.522894 0.219958 1.383966
-1.107824 -2.276000 5.016001
2.745360 -0.327816 4.273267
1.505906 0.907832 2.055270
-2.854626 -2.072307 4.567089
-3.841850 -1.093781 4.678055
-0.932086 0.776784 1.539563
-2.793998 -1.280607 4.900847
0.439505 0.918933 1.653931
2.901649 -1.359534 8.334711
-0.474860 0.781276 1.651296
-1.224522 -0.952781 5.447597
-0.347944 0.770517 1.729025
1.528782 0.479620 3.174640
1.605866 0.761020 2.469431
-2.428406 0.029356 3.029340
-0.241251 -0.103387 1.420421
2.271212 0.700464 2.855108
2.955321 -1.790159 3.574047
-1.540451 -0.843218 5.430931
-2.565314 -0.978981 5.136062
-0.122007 -0.298850 1.395362
-1.853471 0.419582 2.204230
1.131855 0.923259 1.888677
-1.473928 -2.415277 4.860204
-1.675638 0.627109 1.726810
-0.157946 -0.030924 1.423163
2.347657 -0.389673 5.659043
2.910756 -2.104198 3.732724
-0.085981 -0.216978 1.433759
-1.483112 -1.343816 5.302132
-2.422058 -1.006625 5.174477
1.517052 0.704489 2.582162
-1.311527 0.736456 1.531144
-0.708625 0.027840 1.296518
1.792821 0.953928 2.033088
0.628748 0.530142 2.728746
-2.907304 -1.443406 4.802108
2.973946 -1.696629 3.496997
-1.406778 0.748909 1.461561
-0.779462 -1.726982 5.327852
1.091381 0.755246 2.303889
2.935507 -0.690621 3.550084
-0.725431 0.251041 1.346602
3.121059 0.186190 3.276855
0.879080 0.550093 2.775334
0.976034 0.727417 2.330691
1.781684 0.380519 3.527352
4.899475 -3.406826 11.484324
-0.067204 0.163754 1.517971
2.923049 -1.080949 3.692739
0.900064 0.691419 2.396277
2.948652 -0.383236 3.419913
-2.052863 -1.329389 5.165167
1.360414 0.671635 2.612152
-0.814696 0.296041 1.311659
-3.634756 -0.395122 3.791758
3.142210 -0.227030 3.119149
2.803632 -0.185216 4.089221
0.030598 0.489849 1.652697
-1.619143 -2.545515 4.782134
-1.277680 0.705312 1.625687
-3.221948 -0.134097 3.241687
3.062049 -0.841060 3.124779
2.669328 -0.098725 4.543444
2.470879 0.722306 2.852798
1.156889 0.660773 2.569907
0.122221 -0.014953 1.503338
-2.401453 0.145620 2.753129
1.545244 0.783682 2.390635
0.464829 0.640665 2.382522
-0.895792 0.384553 1.332761
3.116206 -1.482262 3.105432
-0.642462 0.580516 1.471225
2.607016 -1.714702 4.931458
1.290171 0.855184 2.125023
0.568491 0.757333 2.108194
-1.765578 -2.550636 4.722073
-3.494951 -1.136650 4.781092
2.850671 -2.209986 3.975786
-1.679585 -2.167317 4.903813
2.468150 -0.640708 5.343009
-1.031880 0.779043 1.508806
0.403196 0.412248 2.959510
2.688540 -1.105898 4.576145
-3.389035 -1.827710 4.538739
4.723459 -3.124495 11.279238
2.829298 0.131224 3.945977
-2.516294 0.094657 2.846373
-1.012512 0.747650 1.580224
2.895710 -1.204445 7.958815
1.563821 0.193741 3.956738
2.593029 -0.703769 4.905000
-3.360668 -1.142022 4.803690
-1.397204 0.698095 1.609054
0.190954 -0.160826 1.487302
-0.566063 -0.118359 1.467734
-2.465806 0.264500 2.451872
-0.818190 -1.762183 5.307826
0.315558 0.759128 2.024651
-1.847036 -1.170516 5.271912
0.671415 0.804840 2.019636
1.142789 0.917199 1.906923
-2.256258 0.305128 2.392900
-0.910337 0.228499 1.252062
2.709925 0.042431 4.378580
2.080261 -0.193220 5.160938
0.715418 0.829927 1.966315
2.980781 -0.311813 3.236241
2.890452 -2.079519 3.822088
-2.664544 0.151727 2.670325
1.020534 0.861945 2.004863
3.030746 -0.466187 3.080500
2.936086 -0.305529 3.452478
-0.732663 0.129432 1.294043
-0.439435 0.711103 1.857648
3.027927 -1.885306 3.344422
-0.778058 -1.765646 5.318255
2.803269 0.135196 4.065423
-2.704621 -0.546166 4.410160
-3.350558 -1.330564 4.736108
2.438353 -0.676698 5.464176
-0.486491 0.747733 1.739209
2.807045 -0.664033 4.070899
0.170944 0.101645 1.571631
-0.568120 -0.086348 1.415460
-3.391999 -0.206561 3.386043
-1.346150 0.701102 1.615984
-2.391875 -2.009683 4.714735
2.175811 0.944415 2.176800
-4.072086 -2.204316 4.080921
0.073460 0.197437 1.597564
-0.575812 0.059925 1.330555
2.816815 -1.666922 4.180225
-0.575447 0.267678 1.406218
2.902542 -0.977681 3.798653
-0.099000 0.316804 1.899441
0.451372 0.837861 1.863719
3.402151 0.579064 3.471849
-3.689878 -1.801121 4.429510
1.434403 0.876635 2.116366
-0.879163 0.812085 1.461622
2.934113 0.033589 3.466153
2.563349 -0.399921 4.959294
2.828133 0.696175 3.031760
2.672782 -2.471106 4.642345
2.026648 0.911417 2.200336
-1.891067 -1.576504 5.111341
-1.715037 0.622329 1.732384
0.170028 -0.512373 1.248029
1.343965 0.932169 1.938047
0.149430 0.698736 1.753382
1.927299 0.914338 2.166308
2.622898 -0.968230 4.783947
1.715703 0.772178 2.474107
2.849883 -0.038278 3.848317
-0.058038 0.872790 1.593409
0.630237 0.608491 2.520572
-0.691366 -0.044633 1.331877
1.476660 0.992307 1.811605
0.141341 -0.214799 1.457182
0.547598 0.917438 1.687017
2.402395 0.302537 3.956951
1.457051 1.000192 1.787548
-1.596362 -2.035077 5.004879
0.425640 0.445759 2.875752
0.082851 -0.617684 1.262912
0.560089 0.226706 3.505328
0.610794 0.811276 1.977324
-0.561131 0.054795 1.332889
-4.239584 -1.328311 4.477702
-3.307565 -1.978540 4.476684
3.075740 -1.082694 3.113813
-0.655847 -1.459024 5.342738
1.771487 0.878694 2.226911
-3.556464 -0.338737 3.665075
-0.302174 -0.097682 1.418594
3.015615 0.681309 3.127491
-1.153105 0.731678 1.585962
0.074300 0.345653 1.615823
-1.440784 0.652217 1.721479
0.009804 -0.060161 1.454355
2.767118 -2.400924 4.229631
-0.972553 0.341806 1.309365
1.071636 0.056589 4.155474
-0.524105 -2.525389 5.081779
2.900124 -0.021945 3.645704
-2.749231 0.050735 2.891658
-0.746528 0.170940 1.300505
-1.402244 0.759619 1.427745
2.211462 0.008569 4.668364
-0.327242 -0.080289 1.406703
-2.570690 -1.303905 4.990010
0.559614 0.812330 1.961121
0.986768 0.936352 1.799783
-2.688877 -1.057104 5.027931
0.300700 0.848712 1.793828
-0.216297 -0.246968 1.478455
-0.720148 0.745836 1.525730
-0.841948 0.012282 1.267451
2.002431 0.838974 2.387666
-1.325948 0.757620 1.467316
-3.434993 -0.586901 4.327384
-1.259404 -1.031912 5.413756
-1.548305 0.699734 1.570189
-0.717755 -0.071860 1.352051
-0.059302 -0.481533 1.339491
-4.378592 -0.960348 4.567724
-3.278600 -1.146282 4.821607
1.895498 0.484463 3.292283
2.926203 -2.098422 3.696723
-0.844033 0.316069 1.309262
2.675725 -1.250901 4.647457
-2.429523 -1.524225 4.941844
-3.129336 -1.013860 4.914040
0.982424 0.696477 2.413806
-4.182619 -1.664560 4.345497
2.745547 -0.025882 4.299823
-0.499765 0.609592 2.112686
2.546805 -0.364166 5.003256
-1.083109 0.718040 1.640179
0.025369 0.761241 1.738859
1.076809 -0.026336 4.375263
-2.155766 0.229434 2.600135
3.525515 0.434199 3.513326
2.401966 0.726213 2.824419
1.713127 0.537989 3.080505
-0.447983 0.684222 1.925728
0.053937 -0.380435 1.282437
-0.286016 0.142159 1.421285
0.268827 -0.359975 1.299487
-0.825713 0.245305 1.288687
-0.834156 0.358865 1.334558
2.265369 0.598141 3.142277
2.716837 -1.909310 4.563350
2.070851 -0.890505 6.969587
-0.759122 0.269153 1.331547
-0.549543 -0.080508 1.410547
0.068771 0.420421 1.635118
0.050445 -0.020458 1.474559
0.138531 -0.317797 1.273627
-0.853768 0.739414 1.644736
-2.608281 -0.238072 3.666542
1.955503 0.254338 3.932578
3.127065 0.472919 3.395062
-3.718534 -1.137730 4.707861
-0.234216 -0.002953 1.411617
-0.015311 0.506752 1.709726
-0.250868 -0.086125 1.411811
-0.888451 -2.504353 4.999933
-1.939837 -0.413156 4.288056
0.582084 0.775497 2.068308
2.602127 -0.760437 6.785961
-0.566240 0.579582 1.498691
-1.614850 0.684998 1.593290
-4.137599 -2.028070 4.146577
-0.190874 -0.221173 1.461484
0.073915 -0.364575 1.279804
2.278366 0.786441 2.618664
1.551421 0.967794 1.903324
1.443801 0.687928 2.596208
-0.330008 -0.063188 1.395062
-0.136245 0.002625 1.429854
-3.640877 -2.057112 4.309780
0.788463 0.743456 2.214853
-3.251300 -1.760441 4.595805
-1.711380 -0.751351 5.236632
-0.749470 -0.083055 1.361473
3.080103 -0.272700 3.081504
-1.009657 -2.600254 4.921280
-0.847964 0.447538 1.365220
1.018509 0.211533 3.722866
2.930914 -0.858977 3.613117
2.986033 -1.237036 3.479103
-0.149724 -0.202594 1.451742
-0.256946 0.808289 1.666881
-0.794693 0.407545 1.375013
-2.593981 -2.035099 4.645941
-0.225573 0.064270 1.427029
-2.963686 -2.265555 4.487984
2.921623 -0.200714 3.516605
-0.253379 0.765122 1.779655
0.989577 0.939383 1.792080
1.446842 0.739589 2.462660
2.950250 -1.851927 3.584927
-2.006387 -2.522487 4.636250
0.197807 -0.138172 1.494992
3.003338 -1.780710 3.421058
-0.064068 -0.331690 1.329310
2.667660 -2.242168 4.697484
-3.434207 -0.403017 3.867527
2.541686 -0.128108 4.993199
-1.847965 0.571268 1.830380
2.878437 -0.242115 3.728806
-3.145231 -0.457594 4.083467
2.063584 0.922056 2.184594
2.531459 -1.187802 5.256781
-1.868014 -2.250934 4.794754
0.810300 0.816961 2.030044
-1.430020 -1.457063 5.259909
2.899676 -1.400712 3.854285
0.977048 0.976204 1.697031
3.498312 0.475645 3.513698
2.827846 -2.038023 4.101065
0.072389 -0.111272 1.450490
-0.223434 0.167750 1.449477
3.041629 -1.236191 3.260629
0.810335 0.453998 3.005049
1.467600 0.589561 2.861077
-0.637627 0.813408 1.528845
-1.305386 0.731085 1.545212
2.709408 -0.370218 4.377744
-2.007880 0.407156 2.184015
-1.069850 -1.118680 5.422092
1.656356 0.843235 2.272778
-0.373793 -2.507407 5.210305
-1.570511 0.656141 1.679603
-0.721696 0.093751 1.292591
-0.033499 -0.253683 1.358907
4.676422 -2.928986 11.380196
0.018762 -0.588576 1.286012
0.256561 0.917355 1.605690
0.322180 0.680309 2.236027
2.964023 0.135764 3.302466
2.931980 -0.553157 3.562726
-2.088650 -1.599006 5.055548
-0.410821 0.760291 1.736688
3.159900 -0.179731 3.148975
-0.063210 -0.087098 1.427761
2.185736 0.173843 4.228730
-0.663468 -0.013110 1.317987
1.469476 0.645744 2.719125
1.492661 0.432065 3.287136
0.322376 0.850184 1.796939
4.187984 -4.696776 11.895503
-0.580789 0.623777 1.505917
0.064997 -0.345430 1.302374
2.942531 -0.300651 3.397351
-1.115603 0.785984 1.455808
-2.140489 0.322046 2.379030
4.290781 -3.075309 12.324861
-1.976427 -0.390250 4.222431
-3.815226 -2.251187 4.167695
-3.103129 -2.420982 4.386361
2.591269 -1.280582 4.975537
0.073164 -0.515107 1.266807
2.507129 0.413575 3.699102
-0.677126 -0.013074 1.314381
2.749921 -0.832688 4.280367
1.914957 0.925678 2.133614
-2.608971 -1.671760 4.807956
-3.488892 -1.952216 4.417122
0.823712 0.845648 1.966958
-3.059498 -1.016283 4.925785
-2.500352 -1.750500 4.816785
2.986353 -0.676384 3.341958
3.058533 -0.803319 3.121192
2.631994 -0.833644 4.766422
2.938304 -1.923177 3.639834
0.673447 0.318872 3.318328
1.819696 0.664534 2.798249
3.066335 -0.928264 3.129154
-0.144130 0.838159 1.648375
2.813084 0.164900 4.011175
-2.839149 -1.294137 4.879289
1.069065 0.939540 1.819648
2.963252 -0.859718 3.500574
1.435076 0.501686 3.080461
-3.780899 -2.203836 4.202251
-3.012262 -0.337494 3.813684
0.703936 0.623481 2.501281
0.244649 -0.426165 1.253972
0.847818 0.333910 3.338373
-0.124628 0.761214 1.837716
0.627892 0.729961 2.200393
-2.083942 0.263774 2.537527
0.276061 -0.160349 1.538775
-0.261488 -0.080439 1.409327
0.239148 -0.654743 1.277150
0.011770 0.805461 1.745892
-0.541310 -1.989882 5.248597
-2.330710 -1.639377 4.937924
-0.890489 0.194035 1.251788
0.109453 -0.698763 1.284304
0.093799 0.360178 1.624090
-4.052706 -0.508931 3.983177
2.914684 0.265720 3.475422
0.820872 0.290472 3.445210
-0.915248 0.465063 1.353803
2.617619 -1.361527 4.915030
3.949373 -5.102853 11.344198
0.658267 0.884425 1.809238
-3.326502 -0.162176 3.294847
-0.477690 -0.125114 1.479441
-2.401410 -1.139088 5.130363
-0.199271 -0.155634 1.439288
2.803110 -0.827469 4.088459
2.746590 -0.445497 4.275182
-0.282566 -0.074628 1.404145
-1.584382 0.573271 1.884218
-1.263361 0.744882 1.523778
-2.214622 -1.095793 5.211949
-0.564195 0.281368 1.419559
-3.064026 -0.998413 4.933075
1.292732 0.007986 4.350779
2.486242 0.736006 2.819439
1.419030 0.998118 1.783842
3.038795 -0.625123 3.088681
3.024146 -0.812336 3.255582
-1.874676 -2.436655 4.716834
-1.587689 -1.970060 5.039691
-1.048309 0.722677 1.636092
1.021095 0.872599 1.975505
2.669236 -2.301430 4.668003
0.113150 -0.675610 1.269235
0.325543 -0.553434 1.322737
-0.772561 0.180086 1.292829
-2.079794 -1.853583 4.940265
-0.599412 0.727933 1.538550
-2.742595 -2.360450 4.500879
2.984773 0.663527 3.159802
2.966328 -0.386725 3.334190
-2.713410 -1.219253 4.964519
-0.286010 0.856462 1.541494
1.842104 0.705416 2.702257
-0.032249 -0.357252 1.308205
-3.272914 -2.325944 4.337634
-1.579269 -1.337150 5.275830
-0.139492 0.829623 1.670292
-0.610168 0.689408 1.520223
2.563258 -1.488680 5.154794
-0.483959 0.002480 1.351078
-0.640582 0.012728 1.313480
0.695621 0.908764 1.760042
-2.051796 0.462277 2.048193
-1.681490 -1.607145 5.145172
3.007287 0.704703 3.068896
1.584302 0.963759 1.925127
-0.402539 0.094737 1.380958
2.874403 -2.107729 3.902106
2.913703 -1.900879 3.736503
1.228573 0.626483 2.682381
3.058587 -0.531019 3.036139
2.794195 -0.507621 4.098917
1.382720 0.634425 2.716386
-2.958514 -0.018132 3.012319
2.974425 -0.466564 3.343292
-0.793193 0.237560 1.301710
-0.244440 0.752644 1.817027
0.807187 0.705421 2.318567
-1.125491 0.803709 1.397166
-0.337511 0.804188 1.645098
-0.836970 0.340029 1.322455
1.277418 0.982866 1.781595
-3.886627 -0.809138 4.732579
0.309846 -0.351380 1.344720
3.579905 0.481050 3.553631
0.490873 0.815808 1.932864
-1.922341 -2.568148 4.652999
-0.903777 0.041562 1.249785
-1.934196 -0.391765 4.238818
-1.201884 0.768735 1.477604
-1.600815 -1.826692 5.081355
2.218454 0.783428 2.608631
2.903043 -2.022360 3.799309
0.136234 -0.602760 1.252514
0.239934 -0.416672 1.255046
0.335531 0.752380 2.049592
0.963715 0.574811 2.737324
-0.528218 0.667429 1.942894
3.050893 0.657349 3.190043
2.961810 -1.819027 3.548217
-1.556461 0.678938 1.623692
-0.535648 0.537749 2.264374
-0.845025 0.150439 1.257229
1.498440 0.948895 1.941121
-1.696731 0.623096 1.734519
-0.029245 0.399643 1.740396
0.555958 0.892482 1.755209
-0.981184 0.790523 1.485832
-1.541801 0.587696 1.859613
-0.741598 0.062829 1.283144
2.834766 -1.301621 4.064837
3.075500 -1.021468 3.113569
-4.511414 -1.145626 4.451183
1.194214 0.598782 2.748662
-1.504871 -1.067721 5.379923
-0.032687 -0.315230 1.325953
-3.809231 -1.938237 4.308913
2.810684 0.211980 4.007752
-1.929807 -1.698165 5.055197
1.522183 0.538139 3.013595
2.032591 0.795728 2.517879
3.077628 -1.079072 3.103395
-0.760227 0.107970 1.280599
2.979208 -1.670456 3.471150
3.126125 -1.524001 3.091140
-1.273756 0.781014 1.415706
-2.876986 -2.209619 4.517770
-0.060092 -0.274710 1.357322
-0.826566 -2.255078 5.102383
0.266804 -0.579279 1.265698
-0.976338 -2.270949 5.048567
-0.459032 0.541708 2.281046
-0.315297 0.744457 1.814467
0.919829 0.761678 2.217254
-0.762563 0.268524 1.328439
3.495559 -6.123756 13.154368
-0.987425 -1.495129 5.321874
-0.382091 -0.130002 1.469021
-0.083203 -0.253559 1.387430
-2.664670 -2.167836 4.579433
-0.558839 0.542790 1.494627
0.037272 0.518439 1.661113
-2.711968 -0.056621 3.180664
-2.368235 0.288534 2.411304
-0.086376 -0.212318 1.440347
2.879388 -0.864806 3.827318
-0.063482 -0.126895 1.433910
-3.119787 -1.847568 4.588052
-1.295400 -1.731867 5.216511
-1.480966 0.737213 1.472597
-0.790707 0.408273 1.377468
-0.821255 -2.654150 4.949701
-0.998104 0.799398 1.459420
0.613098 0.345959 3.206993
-0.288320 0.182694 1.432738
2.660707 -1.251315 4.717839
0.278681 -0.468213 1.274588
2.941995 -1.084880 3.609316
3.783975 -4.509090 12.407494
-0.766819 0.316320 1.354370
0.082742 -0.433589 1.261242
-1.308215 0.686370 1.672892
1.133679 0.262849 3.624026
-0.686543 0.393567 1.442540
-0.348107 0.842186 1.548640
-0.993609 0.809334 1.436364
0.814979 0.899944 1.826310
-1.099161 -2.414570 4.976776
1.600117 0.247119 3.820951
-0.047153 0.852000 1.650105
-0.485611 0.264318 1.417819
3.634400 -2.314112 10.804833
0.109126 -0.324532 1.280467
-3.912617 -1.930847 4.292484
-0.229356 0.757062 1.810527
-0.693084 0.730567 1.518902
-2.551774 -0.579878 4.538447
3.691345 -5.790062 12.760527
-2.910551 -1.510751 4.776513
-1.145766 0.760192 1.518498
-0.330196 0.618072 2.142076
-2.109722 0.329501 2.365469
2.936570 -1.017029 3.620089
-0.110821 0.807010 1.734484
3.005702 -1.219896 3.393415
-2.622473 -0.747595 4.940010
-1.387948 -2.607044 4.826503
1.057149 0.876784 1.984979
2.922565 -1.582830 3.747867
2.915812 -1.654568 3.777223
-0.715919 0.759686 1.529487
-2.342889 -1.896781 4.803969
0.223592 0.812043 1.854902
1.509034 0.765702 2.422870
2.791489 0.088439 4.118657
-1.899614 -1.787689 5.027788
-0.138698 -0.387271 1.398026
0.907992 0.906948 1.840525
-3.014882 -1.903595 4.592804
1.962892 -0.191647 5.118930
-0.176189 -0.143928 1.435291
0.130138 0.068773 1.527014
0.336931 0.851326 1.799352
2.497795 -0.719082 6.649983
2.582308 -1.943234 5.073003
-0.882206 0.031851 1.253979
-0.080249 -0.428505 1.338180
2.696385 0.704223 2.965373
-0.632662 0.132962 1.329327
-3.388247 -2.277864 4.311120
1.917277 0.436536 3.423445
-0.654773 0.553828 2.187384
0.430916 0.920942 1.645912
1.614947 -0.379269 5.507956
2.806486 0.023456 4.070088
2.575020 -1.932781 5.097985
-0.641694 0.627898 2.011824
2.884310 -2.116038 3.833860
-0.113479 -0.371071 1.358811
-2.033800 -2.372377 4.699594
-0.745357 -2.311724 5.094732
2.928359 0.033837 3.491728
0.281683 -0.196320 1.536507
-3.747322 -1.890494 4.354867
3.174012 -1.559412 8.916049
1.590823 -0.522072 5.899415
-3.172413 -2.408245 4.363283
-4.141544 -0.728598 4.466718
0.117043 -0.521220 1.257547
-1.694548 0.471107 2.124280
-2.901859 -1.930372 4.613689
1.465572 0.922795 2.000221
-1.322310 0.730385 1.543733
-0.771416 -2.209039 5.135113
0.613279 0.837251 1.912485
2.895308 -0.428496 3.694321
1.512854 0.982741 1.847117
2.582653 -0.493559 4.921907
-3.229637 -1.503539 4.695407
-1.794871 0.501633 2.012450
3.711027 -3.901286 12.489714
2.853495 -0.972074 3.958062
1.010473 0.452613 3.075837
-3.633831 -0.600276 4.301440
0.182208 -0.056592 1.511582
-0.022028 -0.445516 1.310913
1.464738 0.857702 2.173709
-3.577056 -0.505591 4.082525
1.514737 1.012921 1.772965
2.830811 -0.380400 3.948088
0.071742 0.632870 1.705778
-1.699949 -2.258794 4.852087
0.074118 -0.014772 1.485126
0.971967 0.833778 2.051808
1.049468 0.427336 3.156827
2.988232 -1.164254 3.465819
2.977838 -0.834657 3.453763
-0.541964 -1.971647 5.254936
-0.241170 0.555332 2.338415
-2.716049 -1.793856 4.731551
2.424006 -0.310039 5.432025
-0.411429 0.330838 1.491788
-0.408319 0.279676 1.439548
2.794120 -2.130415 4.220276
-2.870954 -1.377651 4.836106
-1.140073 0.722161 1.620515
-0.272076 0.801227 1.679523
1.137982 0.665706 2.550138
-1.274657 0.772792 1.441862
0.920072 0.792854 2.136984
-0.629716 0.648961 1.495804
-1.435426 0.743354 1.473305
1.308425 0.073386 4.182635
-1.462120 0.603823 1.841971
-0.175057 0.008218 1.426069
-0.620318 0.205381 1.359435
2.863596 -1.171937 3.950570
1.260637 0.527662 2.954920
0.753608 0.677150 2.379207
-1.255254 -1.092088 5.395919
-2.324772 0.174731 2.701683
0.606443 0.733547 2.185333
-0.484714 0.596790 2.156371
-3.541654 -1.943124 4.396551
2.930985 -0.766439 3.578582
-0.416128 -2.750155 4.982760
-3.033179 -0.121959 3.257543
2.951534 -0.353504 3.392377
0.969008 0.546921 2.815114
-3.054415 -1.414136 4.767016
-0.812373 0.262717 1.299707
2.622084 -1.641799 4.887403
-3.245202 -2.159712 4.415731
-0.064751 -0.514622 1.343472
2.817829 0.581349 3.328783
2.450867 -0.866683 5.444344
-0.559001 0.161905 1.353055
-3.031097 -1.468069 4.759774
-1.498947 -2.488925 4.818016
-2.053870 0.318083 2.419967
-0.584221 0.648290 1.977619
0.350027 0.635922 2.364887
0.156577 -0.348482 1.257999
4.246589 -4.385023 12.197924
-2.246315 -1.970218 4.799018
-3.683197 -2.303636 4.203665
1.401165 0.655119 2.670280
0.044627 0.847487 1.692872
3.044973 -1.636874 3.320080
2.947283 -1.642275 3.650957
0.636650 0.752894 2.142688
-2.713521 -0.271646 3.732131
0.759529 0.703415 2.311974
1.185018 0.945144 1.844530
-2.265843 -2.451837 4.572409
-0.256806 0.047023 1.414002
-0.913095 0.687168 1.759026
0.792787 0.956132 1.673563
1.041703 0.973060 1.726936
-1.675681 -1.331505 5.253559
-3.492326 -2.160934 4.314299
-3.448923 -0.612401 4.388321
-2.470144 0.240722 2.505058
2.969317 -0.724063 3.443881
-3.048237 -0.212230 3.478979
2.922303 -0.714967 3.602501
2.438449 -0.068577 4.942805
-3.398657 -0.514971 4.158268
-1.363607 0.770438 1.416708
-4.102521 -2.163840 4.095317
-1.776490 -1.095219 5.308380
2.269328 0.518997 3.348243
2.402095 0.657813 3.019639
-0.086059 -0.436597 1.346930
2.929868 0.351632 3.382730
1.894163 0.695518 2.746998
1.951283 0.894483 2.222677
2.984897 -1.058146 3.430722
3.102099 -0.118046 3.153024
-3.426994 -2.359539 4.275039
2.600199 -1.937089 4.955347
2.931645 -0.211270 3.463237
0.515941 0.432652 2.940189
-2.335155 -1.768540 4.866424
-0.018640 -0.020080 1.447297
-2.661731 -1.310482 4.940914
1.204005 0.800334 2.227896
-0.316502 0.118714 1.408038
-2.483819 -2.182618 4.610660
-0.441180 0.072270 1.366367
0.371513 0.672632 2.269384
2.686978 -0.837014 4.483644
-0.029951 -0.014373 1.444996
-4.254654 -1.713762 4.297688
2.914666 0.410106 3.427291
2.778872 0.606369 3.252605
-4.326760 -0.690270 4.336148
-3.275859 -1.646436 4.630519
1.354925 0.971390 1.839359
2.886133 0.477015 3.523819
0.237423 -0.230707 1.485919
4.509532 -3.211537 11.760188
1.463838 0.822447 2.264693
-2.700066 -1.290865 4.940104
0.151262 -0.559532 1.254858
2.603312 -2.173229 4.961278
-0.623749 0.642986 1.495571
-3.519974 -1.705967 4.546832
-0.356722 0.311496 1.483382
0.123430 -0.224866 1.448301
0.345701 0.709248 2.163573
1.071743 0.296289 3.514199
-0.163396 -0.036483 1.421992
2.148417 0.445466 3.493469
0.511088 0.917940 1.675837
-0.823220 0.229427 1.284797
-3.457282 -2.340540 4.271008
-1.549037 0.670382 1.649714
0.245527 -0.487005 1.258472
1.972833 0.832923 2.397242
1.684879 -0.380418 5.524647
2.900294 -0.618179 3.700684
-4.032281 -1.751254 4.348877
-0.302089 -0.008382 1.392541
-0.595849 -2.149256 5.185508
-0.485291 0.082300 1.354796
0.142059 -0.268308 1.407635
0.520101 0.597060 2.514124
-0.679090 0.599567 2.077941
-0.693399 -0.050011 1.335793
-0.563567 0.097094 1.338675
-3.520717 -2.287875 4.266639
0.130702 -0.404083 1.246623
0.104758 0.583454 1.698442
2.630223 -1.673166 4.866974
1.298858 0.872006 2.085416
-3.839148 -2.206431 4.175926
0.145029 0.322450 1.626829
0.978788 0.860781 1.984031
3.091100 -1.262427 3.104695
2.610348 -0.958621 4.830199
-1.946338 -2.010502 4.897141
0.161023 -0.549378 1.254178
2.998506 -1.888381 9.707073
1.923058 0.226904 3.993387
-0.834606 0.166124 1.263864
-1.609327 0.686235 1.581717
-0.380055 0.018766 1.378032
-0.549047 -2.306899 5.128489
-0.019171 0.090423 1.488505
-2.299153 -1.218839 5.126805
-3.420365 -2.332881 4.287760
-0.181818 -0.143925 1.435265
-3.524094 -0.871473 4.873281
4.211677 -4.446606 12.235557
2.627458 0.816500 2.649457
-3.308964 -1.644827 4.625994
0.827047 0.825765 2.012640
-1.206821 -1.318554 5.368850
-4.136695 -1.727890 4.333117
-0.087434 -0.282337 1.368449
-4.151077 -1.410051 4.458132
-1.670263 0.645840 1.687157
0.190347 -0.543866 1.252828
-0.039496 -0.220027 1.382167
0.063575 -0.668075 1.273877
-2.533171 -1.948967 4.702271
-0.037704 -0.453600 1.319450
-3.005078 -2.164241 4.497217
2.618394 -1.825352 4.916486
0.031016 0.851842 1.675286
2.593404 0.678880 3.007889
2.028196 0.760687 2.600938
-1.541764 -1.669506 5.150536
1.988264 0.341570 3.706001
-2.964164 -1.683678 4.683528
-1.016162 0.812738 1.412862
-0.177851 0.714596 1.946663
-0.619319 0.069982 1.323111
0.026978 -0.077447 1.457177
3.013497 -1.417211 3.387208
-3.943691 -1.135933 4.625258
-0.365733 0.860812 1.496434
-2.875989 -0.342655 3.871995
0.212332 -0.355857 1.266665
0.249760 -0.456061 1.254927
0.171994 -0.182651 1.474861
-1.963505 -1.590267 5.091136
-1.207556 -1.298259 5.372120
3.794725 -5.120939 11.690624
0.295216 -0.470651 1.281227
2.775800 -2.066646 4.294418
0.991837 0.970831 1.711055
1.175932 0.655675 2.589634
2.710526 -1.377257 4.522938
2.750988 -0.732107 4.282027
2.442887 0.659228 3.026135
1.820451 0.876695 2.244181
-1.381033 -2.669500 4.802455
2.865819 -0.688383 3.849438
-3.162180 -1.524991 4.704697
-0.044440 0.541398 1.802730
0.559371 0.567511 2.605115
2.917499 -0.580969 3.649543
1.474548 0.560046 2.942145
3.010364 -0.555080 3.173710
-0.664736 0.523323 1.456778
-1.173333 0.790028 1.421923
-0.480775 0.153424 1.372254
0.849583 0.905805 1.823671
-0.126577 0.205171 1.515649
-0.532617 0.140692 1.353469
2.611022 -2.357463 4.939035
2.515786 0.861243 2.507088
-3.783718 -2.124917 4.242390
0.705198 0.846998 1.917546
-3.010006 -1.019160 4.939728
1.607933 0.777065 2.428644
-0.551031 0.236687 1.386439
-0.825712 0.809946 1.489357
-1.698665 0.619472 1.743490
-0.091544 -0.138048 1.432765
-2.227038 0.237454 2.576354
-2.212023 -2.559593 4.572426
-2.861360 -2.321146 4.493233
-0.644381 0.675527 1.502626
0.043886 -0.425896 1.282829
-1.625853 0.676000 1.616665
-0.498674 0.136260 1.362309
-0.152642 -0.103777 1.425783
2.823591 -1.868685 4.118332
0.204924 -0.607321 1.251776
-0.487387 0.806750 1.586604
-1.986806 -2.345298 4.719385
0.110727 0.020529 1.507490
-3.791501 -1.886967 4.346741
2.838588 -0.988518 4.025020
0.106551 -0.483823 1.250248
-1.013914 0.798318 1.457449
0.954893 0.071494 4.074808
-2.521536 -2.147707 4.613462
0.742022 0.930477 1.723440
0.020989 -0.206416 1.438639
-1.038694 -1.977147 5.161537
-0.778923 0.325354 1.347726
-1.860149 -2.021255 4.923333
3.016436 -0.837164 3.303097
2.156721 0.885031 2.312006
-2.821764 -2.168448 4.543035
1.754293 0.693625 2.697675
-0.942298 -1.635608 5.302969
2.944326 -1.461513 3.665110
0.168322 -0.478116 1.235502
-1.982267 -2.464905 4.665117
-3.221109 -0.432383 3.998632
-2.622265 -0.018684 3.104029
-1.291214 -1.546495 5.283140
2.999167 -1.115800 3.401105
1.792967 0.237804 3.914640
-0.432943 0.229531 1.409370
2.608885 -2.084188 4.934993
0.306035 0.800884 1.915327
-2.633424 -1.296231 4.960639
-2.591157 -1.284746 4.991715
-1.983917 0.469474 2.044503
2.621528 -2.544008 4.850886
-1.557413 -0.947221 5.415806
-2.407204 -2.377852 4.568272
-3.637034 -0.683269 4.514954
1.476011 0.316948 3.591912
1.366228 0.995348 1.778892
0.162460 0.894404 1.609783
-0.356818 0.666158 2.008066
-1.324981 0.681671 1.677497
0.870192 0.944229 1.736281
-1.466591 -1.675989 5.170536
-0.291497 -0.013867 1.394154
-1.823830 0.510079 1.983821
-0.575635 0.468031 1.462787
1.400445 0.524999 3.006124
-0.390728 0.225165 1.416729
0.157152 -0.079665 1.498906
2.337207 0.274744 4.004892
-0.018619 -0.127931 1.445622
-4.337261 -1.075674 4.524609
-0.440554 0.588687 2.189227
0.086821 0.049991 1.503264
0.591407 0.813720 1.964477
-1.438641 0.744818 1.464805
-2.229360 0.220446 2.614649
-0.403050 0.727248 1.824930
-0.579766 0.007651 1.327654
-0.568875 0.717753 1.783525
3.022918 -1.468928 3.353424
-0.104474 -0.485514 1.380737
2.424870 0.818070 2.588573
2.829111 -1.290352 4.079683
0.365749 0.903140 1.672806
2.008657 0.330369 3.744012
2.466690 -0.281415 5.294870
3.023968 -1.917387 3.354590
3.130994 -0.249660 3.095955
-1.374271 0.737020 1.507696
2.118873 0.026434 4.586900
-0.434359 0.194478 1.396146
1.062410 0.370416 3.313081
-0.604066 0.049223 1.323819
-1.792790 -2.307475 4.794852
-2.580631 -2.079084 4.622030
2.916065 -1.103778 3.720808
-3.630943 -1.646081 4.529458
3.596294 -1.922870 9.884359
0.772879 0.893811 1.828438
-3.033683 -1.806564 4.621446
-4.337593 -1.044489 4.543554
0.147924 0.433156 1.659303
2.974790 -1.532659 3.530572
-0.327371 0.787622 1.692812
-0.620468 0.638110 1.994350
2.755667 -0.591359 4.237544
1.007623 0.825624 2.092412
-1.660719 0.652739 1.670893
2.859190 -1.734412 4.031798
-3.058623 -0.135883 3.284868
2.934150 0.102129 3.482338
-1.758524 -0.941114 5.380887
-1.732082 -2.395739 4.783085
-0.364214 0.151058 1.400289
2.753655 -0.661441 4.260159
2.732832 0.238781 4.202431
3.007610 -0.325036 3.119189
3.014600 -1.110264 3.344197
-1.876828 0.452145 2.113642
0.278888 0.672929 2.240695
-0.798665 0.007364 1.277776
-0.594304 -0.002772 1.325219
-0.572219 0.820251 1.530411
2.693441 -1.140439 7.736652
-1.078992 -1.704740 5.259234
2.320905 0.668388 2.961402
3.034734 -0.779304 3.173147
-1.550426 0.647227 1.708308
2.925495 0.379357 3.393056
1.178614 0.859675 2.075421
-3.771991 -1.438954 4.549514
-2.036860 0.451789 2.073903
4.771805 -3.718435 11.612313
-0.148701 0.873194 1.560578
-0.425864 0.285731 1.441571
1.184912 -0.202385 4.892512
-1.455155 0.695614 1.603335
-0.555893 -2.666187 5.008835
-4.444974 -1.181501 4.454619
-0.945722 0.401471 1.336805
-0.423336 0.241431 1.414229
-2.008519 -0.501888 4.478729
-1.535120 0.716210 1.526445
-1.771754 -2.123947 4.892639
2.619840 0.679614 3.011141
0.014307 -0.303109 1.341449
-0.147350 -0.120824 1.428720
1.996554 0.884486 2.264125
-0.838627 0.037025 1.262452
1.947106 0.636893 2.923606
-0.534619 -2.168875 5.183724
-4.258661 -1.802456 4.267901
0.191636 -0.284691 1.406634
0.023674 0.302508 1.622676
0.898229 0.842169 1.995320
-0.168595 -0.325769 1.467237
2.906595 -1.674880 3.823594
-0.132027 -0.230045 1.445102
0.087240 0.881334 1.620628
0.598049 0.879396 1.798949
1.804805 0.973864 1.976321
-0.018115 -0.196288 1.406557
2.919065 -0.159896 3.530200
-0.394226 0.128099 1.389864
1.911711 0.957540 2.058013
0.093694 0.714119 1.740525
-0.615049 0.652080 1.502992
0.131578 0.857991 1.700513
0.159773 0.582968 1.716653
-0.816218 -1.291717 5.433352
2.549609 -1.463578 5.209568
1.746857 0.834119 2.321943
0.184898 0.885823 1.640730
1.571189 0.481162 3.184845
0.752371 0.928133 1.731694
-0.028899 0.259832 1.719848
2.307541 0.471806 3.485341
0.032584 -0.099997 1.452208
-2.802493 -1.954953 4.628988
1.198779 0.740723 2.373324
2.575825 0.779337 2.738249
-0.649701 0.315602 1.448748
2.763374 -1.317819 4.327741
-0.976625 0.104769 1.242633
-2.080342 -0.986893 5.286502
1.421387 0.177865 3.949255
2.863038 -0.321831 3.805585
-0.562274 0.750942 1.700082
-2.481956 -1.831513 4.781345
-1.698502 0.643995 1.682339
2.883469 -0.630374 3.773692
-0.709148 0.594740 1.477853
-0.079524 -0.382968 1.326088
-1.252683 0.757500 1.489746
-0.432785 -2.848512 4.949641
-0.202065 -0.092153 1.419241
3.041542 -1.903669 3.330589
-3.807806 -1.062905 4.704032
2.952409 -0.308069 3.333246
1.537120 1.016284 1.766705
3.058102 -1.590518 3.278288
0.053730 -0.444196 1.277501
1.616192 -0.164863 4.919621
-2.106790 -1.345282 5.148357
2.770709 -1.011010 7.454452
-0.430202 0.715169 1.849296
-3.926706 -0.470045 3.919811
-0.276859 0.024619 1.403146
-1.907596 -1.593630 5.101903
-3.319784 -0.327957 3.705912
-0.838319 0.491986 1.384685
0.269532 0.811584 1.870636
-1.899560 0.423092 2.177737
0.094077 0.092655 1.525259
-4.159642 -0.925614 4.663885
2.939669 0.321775 3.348533
-0.856426 0.393326 1.344858
-0.972402 0.253897 1.256075
0.004762 0.587280 1.690254
-1.170483 -1.134400 5.395576
0.745850 0.856894 1.906054
3.032182 -0.842280 3.223382
-0.891153 0.317860 1.295603
2.827123 -1.119655 4.100017
1.135085 0.439309 3.153777
0.507376 0.342554 3.175423
-0.191146 -0.092259 1.420875
-0.563213 0.740923 1.723369
-0.879983 0.336631 1.309241
0.170762 -0.524428 1.253411
2.824828 -2.148475 4.096689
0.760307 0.452297 2.993790
-2.604185 -0.526036 4.386734
2.577267 -0.989586 4.986221
-0.471281 0.804911 1.595309
0.053906 -0.385249 1.281695
2.799043 0.394986 3.799802
2.850765 -2.241289 3.975917
2.886042 -1.694444 3.938888
-2.098609 -1.400482 5.128364
0.254721 0.789863 1.925134
2.604450 -0.734660 4.854534
0.250311 -0.046346 1.566577
-2.669369 -1.781294 4.747596
1.840870 0.076411 4.355042
-0.215342 0.081450 1.433474
0.178227 0.299039 1.638590
0.312408 0.823201 1.863670
0.486121 0.360966 3.118998
-3.792634 -1.357000 4.574413
-1.501359 -2.473977 4.825769
1.789025 0.836795 2.329393
0.145398 -0.062008 1.499002
-0.870058 0.220912 1.264934
0.159293 -0.407038 1.240705
-1.309279 -0.930852 5.444474
4.748020 -2.891007 11.232633
-3.192024 -2.018401 4.487126
-0.734005 0.037759 1.287490
-2.214479 0.390161 2.184914
-3.923972 -2.206032 4.144364
0.177363 -0.193779 1.471393
-1.234389 0.792250 1.396312
0.083089 -0.161215 1.438644
-3.326028 -2.104007 4.408026
0.053783 -0.409477 1.278756
2.052118 0.768394 2.592476
1.330753 0.845331 2.163893
2.552065 -1.546908 5.214587
-3.461156 -1.274426 4.734860
0.706439 0.490020 2.870385
2.979780 -1.417513 3.520100
-0.524843 0.256173 1.403704
-3.372969 -1.915426 4.493608
2.543441 -0.187069 4.996647
0.169382 0.464500 1.678369
1.667247 0.649764 2.782063
-0.603931 -2.425837 5.082282
2.569913 -1.823218 5.127712
3.118285 -1.744927 3.095399
-0.358381 0.209062 1.420733
-1.408884 0.667351 1.691293
1.036746 0.819224 2.118363
-0.613755 0.122912 1.333583
-4.252825 -1.112349 4.529230
2.250399 0.259880 4.018260
1.534632 0.926579 2.008424
2.627426 0.008493 4.626635
-2.120645 -2.127132 4.770499
-3.997871 -0.490395 3.959828
-0.641565 0.122229 1.326167
3.015628 0.068837 3.205784
-0.957092 0.812684 1.432325
0.226942 -0.633601 1.264983
-0.665756 -2.333024 5.097551
-0.365306 0.829312 1.570330
0.110786 0.026464 1.508293
0.080786 0.049908 1.500746
0.201729 -0.714376 1.294313
-3.744141 -1.134294 4.693645
-0.689289 0.541813 1.460351
-0.817889 0.091462 1.261031
0.192859 -0.469131 1.237400
3.103570 -1.252707 3.080792
3.000906 -0.342104 3.163739
2.629511 -0.341744 4.695194
0.726056 0.952698 1.656168
-3.901707 -0.511676 4.004666
-0.900860 -1.248147 5.429476
2.982070 -1.061934 3.443002
-2.385722 -1.964299 4.739264
-2.717189 -0.125672 3.356723
-3.495811 -0.533679 4.176867
-2.816755 -0.363951 3.937877
0.283568 0.710971 2.143152
-4.417703 -1.475608 4.341912
1.653471 0.891766 2.152895
-3.813629 -1.660593 4.472718
-3.115904 -1.863265 4.582342
2.416032 -0.010006 4.783223
2.769898 -0.769146 4.208636
-1.487413 0.652760 1.705234
-3.997787 -2.160635 4.119874
3.070749 -0.882081 3.096459
1.988140 0.171119 4.162455
-0.126736 -0.422404 1.387184
1.748993 0.768557 2.493888
3.227572 0.591811 3.388685
-2.989666 -1.333362 4.813355
-1.140679 -2.163078 5.074600
2.525255 0.607264 3.190199
1.883343 0.455225 3.362854
3.083702 -1.451133 3.198104
-0.847395 -2.237168 5.107244
-0.783574 -0.082707 1.355773
2.560057 -1.812817 5.273198
-0.598401 0.820985 1.520638
-1.263597 0.794027 1.380335
-0.932914 0.157658 1.236402
2.798490 -0.056957 4.105217
-0.061221 -0.236426 1.382834
-1.282682 0.707419 1.615916
-1.087988 0.783460 1.472557
1.643145 -0.064753 4.667171
-2.003692 -1.424680 5.143008
-2.372047 -1.214957 5.110476
-2.982165 -2.137792 4.515967
-0.774117 -0.007747 1.286982
-0.592589 0.655907 1.954032
2.913756 -1.320552 3.755469
-0.894518 0.688809 1.763226
-0.793498 0.322679 1.336643
2.814935 -1.329932 4.153249
-0.984543 -2.460058 4.989749
-0.606933 0.845073 1.469073
3.102047 -1.802148 3.152971
-3.808351 -0.518219 4.055869
-0.171498 0.076335 1.443214
2.883909 -0.911329 3.833326
2.883473 -1.869274 3.852844
-2.645972 -2.091538 4.609472
-0.800666 -0.049194 1.313975
0.631774 0.676010 2.342873
2.650917 -0.798097 4.667999
-1.578195 -2.036978 5.009555
1.151050 -0.100030 4.603517
-2.218314 -0.545438 4.548535
-0.210244 0.610651 2.206455
-2.242157 -0.401017 4.162068
-0.846455 0.292784 1.297226
2.685752 -1.786898 4.664872
0.231921 0.872280 1.702332
-0.001437 -0.619872 1.298671
1.699129 0.989248 1.901455
-3.552043 -0.483966 4.035903
1.498708 0.382216 3.418622
0.085188 -0.334210 1.298531
2.948521 -0.497459 3.467101
-0.208898 0.198617 1.467230
-3.552892 -2.023649 4.346975
2.351773 0.616384 3.109784
2.877264 0.209652 3.689773
-2.170957 0.237956 2.581799
-0.264499 0.804822 1.673283
-3.064072 -0.262774 3.610235
-0.319594 -2.859013 5.002024
-0.141589 0.745709 1.871255
3.593693 -3.298987 12.256691
0.724427 0.905041 1.779909
-1.812797 -0.957455 5.354089
0.028900 -0.412444 1.288022
-1.254543 -1.986414 5.133100
1.464802 0.974844 1.859730
-3.048938 -2.342102 4.432698
-1.902586 0.492992 2.009445
-0.295634 -0.091808 1.413940
2.589581 -2.295225 4.972295
2.792835 0.306188 4.004711
2.912232 -1.452487 3.791861
-0.565840 -2.373490 5.098466
0.088366 0.873368 1.641543
2.927066 -0.571650 3.591001
-0.943147 0.258918 1.256500
-3.842011 -1.937714 4.307750
-0.244984 0.008125 1.409829
2.947602 -0.427269 3.450099
-1.137738 0.738202 1.573316
3.064783 -1.701554 3.244504
-0.631315 0.111840 1.326497
2.978371 -0.145225 3.206304
-0.701552 0.109797 1.302276
-2.584390 -2.005310 4.661526
-3.495548 -1.782796 4.515280
-0.012243 -0.239107 1.367114
2.708845 -2.243215 4.549926
2.892855 -2.085449 3.805519
0.165004 -0.264141 1.414927
2.810031 -1.351725 4.170158
-0.220674 -0.216536 1.468966
1.858733 0.887374 2.226743
2.934149 -1.702611 3.688477
-4.141161 -1.089478 4.582675
-3.734676 -2.378451 4.132852
2.918973 -1.596958 3.781318
-2.817416 -0.043257 3.117797
0.127121 -0.061703 1.491614
-4.122743 -2.093689 4.115503
-3.053081 -1.708516 4.650996
0.503019 0.873734 1.787366
0.625087 0.857341 1.858344
-0.215007 0.589037 2.256439
2.825046 -0.862742 4.028232
0.013856 -0.364995 1.299190
0.308921 -0.391060 1.318254
-1.546848 -2.606523 4.790705
2.710847 -2.191225 4.553288
2.626295 -1.594322 4.859706
0.772935 0.621788 2.534422
3.035911 -1.102542 3.282112
-0.698367 0.269528 1.387314
2.765468 -0.602889 4.201904
-0.858017 0.320676 1.307085
1.854331 0.903187 2.180467
-3.098351 -2.378847 4.404035
-0.090537 0.859481 1.615443
-0.074804 0.886722 1.552073
2.859703 -0.614723 3.861578
-3.696934 -1.123906 4.727489
0.086217 -0.003123 1.492805
1.838104 0.999905 1.921940
2.654645 0.079278 4.518452
-1.383294 0.706721 1.585868
-0.181306 -0.316330 1.476979
-0.053287 -0.339911 1.320679
0.157780 0.837377 1.769871
-0.403453 0.773447 1.705538
0.008740 -0.532282 1.296522
4.270625 -3.427191 12.549881
-2.344100 -1.465934 5.007928
2.955010 -1.055123 3.556791
2.922395 0.224317 3.468387
-3.954880 -1.701024 4.395621
-3.884963 -1.653603 4.453890
-3.447528 -1.051185 4.819709
2.252460 0.890600 2.326555
-1.069823 0.704721 1.669670
-1.003243 0.457750 1.379843
-2.981614 -1.213126 4.861825
2.952880 -1.844781 3.571095
-0.213085 0.691554 1.990367
-0.842417 0.357925 1.331061
2.174752 0.694703 2.831627
1.613338 0.491282 3.169439
3.809059 -4.923275 11.878384
4.550115 -2.976958 11.745819
0.400159 0.743708 2.093151
-0.578127 0.189523 1.360579
2.518463 0.114223 4.496908
-0.699305 0.038070 1.298105
0.244354 -0.455164 1.252457
-0.041239 -0.144717 1.443158
2.296576 0.659784 2.975047
3.036549 -0.776584 3.162071
-2.695585 -0.854524 5.115545
0.246912 -0.169016 1.508262
4.818192 -2.656034 10.990520
-3.731733 -1.265072 4.632513
-0.114026 -0.143665 1.432673
-0.880992 -2.027665 5.187054
-1.643239 0.662732 1.646805
-0.456775 -2.720191 4.999623
2.900064 0.035328 3.645629
-0.190672 0.847394 1.604569
1.540708 0.706043 2.587858
1.850337 0.762501 2.538949
-1.620886 0.528021 1.992726
1.800077 0.866214 2.262851
-0.677470 0.126369 1.315049
0.232014 -0.213587 1.488622
