8.519917 -4.963281 16.010044 115 120 126
8.586821 -4.965113 15.960262 110 114 126
8.651970 -4.966001 15.907799 114 120 132
8.716965 -4.966872 15.855400 113 117 129
8.775125 -4.963967 15.792127 156 157 161
8.831837 -4.960378 15.727066 93 100 110
8.884933 -4.954917 15.656809 84 92 103
8.932799 -4.946732 15.578970 97 105 118
8.980692 -4.938757 15.502044 92 100 113
9.026289 -4.929726 15.422405 119 119 119
9.059917 -4.914439 15.325317 209 181 160
9.094752 -4.900085 15.231335 231 211 184
9.136405 -4.889632 15.148787 222 208 182
9.184343 -4.882716 15.076530 180 175 155
9.227921 -4.873677 14.998609 232 231 213
9.267520 -4.862756 14.915760 159 159 147
9.303914 -4.850389 14.829259 223 221 209
9.363448 -4.850169 14.776733 226 223 208
9.420830 -4.848921 14.721505 226 223 208
9.471376 -4.844286 14.657126 226 224 211
9.522966 -4.840305 14.594759 224 222 209
9.574654 -4.836492 14.533051 225 221 209
9.625165 -4.832208 14.470265 225 219 207
9.677516 -4.828956 14.410478 223 220 205
9.735030 -4.828354 14.358005 222 219 204
9.790273 -4.826714 14.302878 223 220 205
9.848610 -4.826664 14.252149 222 219 204
9.903204 -4.824869 14.196898 222 219 204
9.958898 -4.823689 14.143426 222 219 204
10.013078 -4.821861 14.088388 222 219 204
10.067799 -4.820375 14.034402 222 219 204
10.123129 -4.819257 13.981522 222 220 205
10.181081 -4.819445 13.932182 223 220 205
10.238228 -4.819316 13.882130 227 221 207
10.301044 -4.821885 13.839161 225 222 205
10.364108 -4.824599 13.796627 226 223 206
10.413269 -4.820952 13.737846 232 225 207
10.457359 -4.815087 13.673592 217 206 188
10.505071 -4.810991 13.614066 164 149 130
10.558744 -4.809692 13.561819 214 202 180
10.623669 -4.813525 13.522648 213 200 183
10.707901 -4.826012 13.505238 181 175 163
10.822340 -4.851865 13.521106 172 173 167
10.912365 -4.866695 13.509102 94 92 93
10.978997 -4.871127 13.471111 42 41 46
11.043208 -4.874506 13.430544 56 60 61
11.096647 -4.873213 13.378520 38 39 41
11.155685 -4.874414 13.332746 126 128 125
11.215123 -4.875830 13.287579 15 16 18
11.274282 -4.877166 13.242296 33 33 35
11.322010 -4.873660 13.185382 34 32 33
11.361932 -4.866924 13.120865 35 34 32
11.367257 -4.845675 13.021771 224 225 219
11.394088 -4.833736 12.945455 227 229 226
11.474529 -4.844417 12.923298 91 92 94
11.569174 -4.860966 12.914935 34 35 37
11.631462 -4.863986 12.874430 31 31 33
11.691313 -4.866021 12.831658 32 32 34
11.746155 -4.866029 12.784208 65 70 66
11.797869 -4.864807 12.733997 85 86 80
11.849813 -4.863739 12.684275 103 94 85
11.905407 -4.864208 12.638227 107 90 80
11.956991 -4.863105 12.588655 113 95 81
12.000690 -4.858893 12.532092 142 133 118
12.025887 -4.847372 12.459047 237 234 227
12.028297 -4.826934 12.366086 215 204 184
12.060034 -4.818343 12.300407 210 194 171
12.101488 -4.813706 12.243896 203 189 162
12.147943 -4.811119 12.192171 198 180 156
12.202494 -4.811765 12.147811 198 186 164
12.266165 -4.816000 12.111512 172 165 149
12.318681 -4.815920 12.065686 232 229 212
12.370757 -4.815716 12.019688 224 221 204
12.425328 -4.816515 11.975993 223 220 205
12.475231 -4.815566 11.928562 222 219 204
12.526270 -4.815101 11.882301 221 218 203
12.577603 -4.814794 11.836492 221 218 203
12.636320 -4.817322 11.796893 220 217 202
12.682230 -4.815052 11.747052 219 216 201
12.727148 -4.812472 11.696688 219 216 201
12.773787 -4.810597 11.647967 217 214 199
12.815660 -4.807007 11.595749 217 214 199
12.887011 -4.814399 11.566841 217 214 199
2.549831 -5.135680 22.389631 29 25 22
2.631917 -5.133406 22.307653 43 39 36
2.715265 -5.134148 22.238258 50 46 43
2.799120 -5.136210 22.174412 58 55 50
2.881039 -5.135029 22.097536 63 60 53
2.962949 -5.134288 22.022671 65 62 53
3.044142 -5.132733 21.944736 70 67 58
3.123918 -5.129261 21.859331 72 69 60
3.203447 -5.125920 21.774746 74 71 62
3.282559 -5.122434 21.689863 75 72 63
3.361044 -5.118483 21.603420 75 72 63
3.439943 -5.115671 21.521782 75 72 63
3.518392 -5.112641 21.439550 78 74 65
3.595682 -5.108389 21.352783 78 70 67
3.672393 -5.103810 21.265038 82 74 71
3.750576 -5.101746 21.187418 81 76 72
3.828600 -5.099838 21.110645 82 77 71
3.906934 -5.098692 21.037062 83 78 72
3.981574 -5.093089 20.946478 88 84 75
4.058045 -5.090288 20.867012 84 80 71
4.135096 -5.088571 20.791954 86 83 74
4.209391 -5.083812 20.705502 91 86 80
4.281749 -5.077157 20.612139 93 88 84
4.355401 -5.072502 20.526714 96 89 83
4.427911 -5.066930 20.438131 95 88 82
4.502121 -5.063704 20.358709 93 88 82
4.577352 -5.061949 20.285069 91 86 80
4.652407 -5.060277 20.211964 90 85 79
4.726194 -5.057510 20.134991 88 83 77
4.801231 -5.056364 20.064285 77 73 64
4.875711 -5.054878 19.992523 72 69 60
4.949564 -5.052996 19.919510 75 72 63
5.025086 -5.053055 19.853848 71 68 59
5.101357 -5.054049 19.791775 71 68 59
5.175563 -5.053179 19.723045 66 63 54
5.246875 -5.049725 19.645119 64 61 52
5.316812 -5.045243 19.563726 68 64 55
5.387083 -5.041379 19.484852 86 82 73
5.457642 -5.038065 19.408213 111 107 96
5.530276 -5.036909 19.339560 153 147 133
5.604114 -5.037037 19.275681 169 161 148
5.671703 -5.031774 19.192793 170 160 148
5.741571 -5.028810 19.118351 203 193 181
5.813832 -5.028155 19.052298 194 185 170
5.885729 -5.027364 18.985943 216 204 190
5.956945 -5.026174 18.918369 205 194 176
6.026411 -5.023704 18.846523 218 203 184
6.094980 -5.020706 18.773058 206 198 175
6.172288 -5.025045 18.725260 201 190 170
6.245094 -5.025804 18.665146 202 191 173
6.314003 -5.023588 18.594934 190 182 163
6.383385 -5.021936 18.526871 213 201 179
6.451061 -5.019135 18.455076 228 218 193
6.515188 -5.013803 18.374897 234 226 203
6.579782 -5.009077 18.297064 219 212 193
6.643253 -5.003741 18.217445 232 225 207
6.705257 -4.997558 18.135256 234 227 211
6.765781 -4.990542 18.050587 233 228 209
6.814294 -4.975042 17.937899 232 227 208
6.759130 -4.885162 17.578205 231 225 209
6.796328 -4.863204 17.446093 230 224 210
6.866757 -4.865306 17.394150 231 225 211
6.929060 -4.861794 17.323820 231 225 211
6.988914 -4.856766 17.248756 230 224 210
7.051855 -4.854070 17.181572 230 224 210
7.113198 -4.850450 17.111595 228 222 208
7.171566 -4.845003 17.035925 206 200 186
7.233499 -4.842147 16.968899 233 227 213
7.297826 -4.841034 16.907694 229 223 209
7.361087 -4.839350 16.844822 229 223 207
7.424956 -4.838194 16.783827 232 226 212
7.489622 -4.837677 16.725025 228 222 208
7.553178 -4.836562 16.664482 229 223 211
7.616212 -4.835238 16.603443 232 226 214
7.682438 -4.836037 16.549257 230 224 212
7.747593 -4.836256 16.493370 230 224 212
7.812259 -4.836266 16.436964 233 227 215
7.876662 -4.836211 16.380495 230 227 212
7.938973 -4.834984 16.320528 235 227 214
8.000601 -4.833459 16.259808 203 197 181
8.063611 -4.832876 16.202156 230 226 214
8.131352 -4.835195 16.153543 233 222 204
8.198461 -4.837197 16.104044 211 195 170
8.269993 -4.841835 16.062645 208 190 170
8.357187 -4.855550 16.048758 126 100 77
8.445863 -4.869992 16.036880 153 148 145
8.519693 -4.875847 15.998997 89 97 108
8.585422 -4.877120 15.947394 86 92 106
8.650737 -4.878228 15.895404 92 100 111
8.715697 -4.879207 15.843135 98 104 118
8.776271 -4.877829 15.784004 164 168 171
8.833978 -4.874980 15.720697 100 109 118
8.887122 -4.869767 15.650647 98 106 117
8.937092 -4.862989 15.576271 96 100 111
8.986009 -4.855821 15.501041 92 98 110
9.032729 -4.847660 15.423218 126 124 125
9.067274 -4.833234 15.327601 209 178 157
9.097543 -4.816831 15.226746 234 213 184
9.138610 -4.806372 15.143434 224 208 182
9.187721 -4.800305 15.073031 179 172 153
9.231624 -4.791706 14.995685 234 231 214
9.266865 -4.778853 14.906598 146 146 134
9.306073 -4.768261 14.824304 215 213 201
9.368670 -4.769710 14.776233 227 224 209
9.426272 -4.768700 14.721364 228 225 210
9.475494 -4.763587 14.655192 227 223 211
9.527592 -4.760034 14.593592 224 222 209
9.579678 -4.756589 14.532488 225 221 209
9.630699 -4.752732 14.470447 226 220 208
9.683938 -4.750071 14.411891 223 220 205
9.738829 -4.748307 14.355972 222 219 204
9.794051 -4.746790 14.300881 223 220 205
9.853482 -4.747371 14.251635 222 219 204
9.907555 -4.745460 14.195758 222 219 204
9.963259 -4.744408 14.142353 222 219 204
10.017539 -4.742761 14.087495 222 219 204
10.071645 -4.741115 14.032790 222 219 204
10.126932 -4.740098 13.979912 222 220 205
10.185699 -4.740762 13.931625 223 220 205
10.243241 -4.740917 13.882094 226 220 206
10.307975 -4.744417 13.841463 227 221 205
10.371274 -4.747285 13.799220 228 222 206
10.417881 -4.742639 13.737451 230 223 205
10.458435 -4.735383 13.669119 213 202 184
10.505939 -4.731369 13.609437 159 144 125
10.560296 -4.730503 13.558055 216 204 182
10.625076 -4.734312 13.518788 216 203 186
10.707677 -4.745975 13.499603 181 175 163
10.821249 -4.771122 13.514567 169 170 164
10.911304 -4.785827 13.502678 97 95 96
10.977305 -4.790020 13.464088 41 41 43
11.041558 -4.793473 13.423664 59 63 64
11.097243 -4.793273 13.374146 38 40 39
11.157082 -4.794902 13.329295 122 124 121
11.218333 -4.797166 13.286102 15 16 18
11.278720 -4.799097 13.242147 32 32 34
11.324396 -4.794884 13.183153 33 31 32
11.362126 -4.787444 13.116453 34 33 31
11.369063 -4.767322 13.019089 216 217 211
11.393827 -4.754825 12.940763 227 229 226
11.473264 -4.765018 12.917672 102 103 105
11.570753 -4.782565 12.912186 34 36 35
11.633902 -4.785985 12.872578 31 29 30
11.693547 -4.788001 12.829656 30 30 30
11.746103 -4.787182 12.780060 55 57 52
11.800192 -4.787036 12.732182 99 100 92
11.854048 -4.786848 12.684311 114 105 96
11.905318 -4.785679 12.634251 105 91 80
11.958333 -4.785262 12.586074 110 94 79
12.006828 -4.783110 12.533977 133 126 110
12.030954 -4.771445 12.459981 236 233 226
12.034987 -4.752066 12.368524 214 203 183
12.064102 -4.742680 12.300513 208 192 169
12.106003 -4.738382 12.244432 200 186 160
12.153193 -4.736210 12.193383 196 178 154
12.207848 -4.736973 12.149133 201 186 165
12.271544 -4.741237 12.112873 170 161 146
12.323810 -4.741149 12.066851 232 229 212
12.376091 -4.741113 12.021045 224 221 204
12.430557 -4.741947 11.977282 223 220 205
12.480249 -4.741020 11.929694 222 219 204
12.533029 -4.741301 11.884894 222 219 204
12.583423 -4.740732 11.838321 221 218 203
12.644234 -4.744083 11.800439 220 217 202
12.689541 -4.741709 11.750112 220 217 202
12.730247 -4.737700 11.696383 219 216 201
12.780220 -4.737167 11.650340 218 215 200
12.819490 -4.732765 11.596085 216 213 198
12.891346 -4.740310 11.567592 217 214 199
2.646573 -5.046271 22.352343 68 65 60
2.729660 -5.046351 22.279560 71 68 61
2.812736 -5.046817 22.208580 74 71 62
2.893821 -5.044117 22.124683 77 74 67
2.975377 -5.042771 22.046644 79 76 69
3.056006 -5.040321 21.964308 80 77 70
3.135941 -5.037229 21.879606 83 80 73
3.215922 -5.034727 21.797598 87 84 77
3.295156 -5.031535 21.713049 87 84 77
3.373208 -5.027043 21.623524 89 86 79
3.451247 -5.023073 21.536423 92 89 82
3.529563 -5.020000 21.453234 91 86 80
3.606094 -5.014858 21.362032 89 84 78
3.682556 -5.010146 21.272888 82 77 71
3.760273 -5.007618 21.192755 78 71 65
3.837587 -5.004948 21.112314 72 68 59
3.914678 -5.002373 21.032511 70 66 57
3.988582 -4.996140 20.938566 62 58 47
4.064337 -4.992706 20.855967 65 61 50
4.141835 -4.991780 20.783447 60 56 45
4.216587 -4.987864 20.699490 71 65 51
4.289549 -4.982237 20.609186 82 76 62
4.363324 -4.977988 20.524546 87 79 66
4.435280 -4.972067 20.433765 114 106 93
4.508749 -4.968257 20.351435 119 109 97
4.582683 -4.965306 20.272671 152 140 128
4.657034 -4.963120 20.197079 168 158 146
4.730533 -4.960316 20.119383 158 148 138
4.805950 -4.959802 20.050602 151 145 131
4.880104 -4.958217 19.977974 187 184 169
4.953222 -4.955841 19.902594 191 188 173
5.028659 -4.956028 19.837040 223 220 205
5.104120 -4.956425 19.772442 217 214 199
5.177969 -4.955449 19.702904 236 233 218
5.249810 -4.952786 19.627317 235 232 217
5.320384 -4.949199 19.548567 241 238 223
5.391293 -4.946199 19.472237 245 238 222
5.462236 -4.943488 19.397215 237 230 212
5.533578 -4.941377 19.324631 215 204 182
5.606409 -4.940807 19.257868 231 220 198
5.675004 -4.936728 19.178574 227 209 187
5.747065 -4.935896 19.111280 184 167 147
5.821357 -4.937141 19.051641 206 189 169
5.892339 -4.935738 18.982645 231 210 189
5.963274 -4.934484 18.914385 236 222 196
6.031809 -4.931450 18.839991 180 166 140
6.097956 -4.926710 18.759792 222 210 184
6.174529 -4.930555 18.710192 200 184 161
6.246848 -4.931099 18.649036 153 135 115
6.315131 -4.928623 18.577450 105 87 67
6.383705 -4.926569 18.507561 141 114 95
6.449358 -4.922472 18.430779 243 217 194
6.511208 -4.915732 18.345102 232 220 196
6.574667 -4.910474 18.264874 231 223 202
6.638566 -4.905787 18.186901 238 231 212
6.701609 -4.900703 18.107845 234 227 209
6.761572 -4.893630 18.022280 231 226 207
6.806679 -4.876203 17.901833 230 225 206
6.769726 -4.801163 17.586723 228 222 206
6.804506 -4.778027 17.448917 231 225 211
6.870386 -4.777047 17.386377 231 225 211
6.930585 -4.772301 17.311390 230 224 210
6.990408 -4.767505 17.236504 229 223 209
7.053463 -4.765094 17.169817 229 223 209
7.115639 -4.762251 17.101910 228 222 208
7.174930 -4.757666 17.028463 203 197 183
7.236139 -4.754530 16.960047 231 225 211
7.298819 -4.752513 16.895521 229 223 209
7.361845 -4.750861 16.832378 228 222 206
7.425634 -4.749829 16.771437 233 227 213
7.489319 -4.748853 16.710846 227 221 207
7.552728 -4.747823 16.650248 229 223 211
7.616591 -4.747193 16.591101 229 223 211
7.681503 -4.747319 16.534534 230 224 212
7.745577 -4.747028 16.476778 230 224 212
7.810350 -4.747263 16.420837 232 226 214
7.874712 -4.747342 16.364540 232 228 216
7.936658 -4.746077 16.304138 234 226 215
7.998693 -4.744977 16.244427 201 195 179
8.061292 -4.744318 16.186260 229 225 213
8.128325 -4.746337 16.136599 237 226 208
8.195073 -4.748251 16.086700 217 201 176
8.267086 -4.753237 16.046398 204 186 166
8.352939 -4.766093 16.030367 125 98 77
8.445047 -4.782365 16.024660 175 167 164
8.520934 -4.789407 15.990473 112 116 125
8.587357 -4.791176 15.940189 102 106 118
8.650918 -4.791428 15.885396 102 109 119
8.710594 -4.789635 15.824550 102 106 117
8.770700 -4.788185 15.764913 163 163 165
8.831751 -4.787347 15.707282 117 122 128
8.887597 -4.783817 15.641758 113 117 126
8.941028 -4.779132 15.573016 117 122 128
8.992876 -4.773758 15.502471 128 135 141
9.039773 -4.765942 15.424968 148 147 143
9.073771 -4.751595 15.328572 205 175 151
9.100748 -4.733889 15.222795 234 213 184
9.139235 -4.722409 15.135723 221 205 182
9.190871 -4.717864 15.069204 182 172 160
9.236503 -4.710409 14.994495 239 235 224
9.268557 -4.696289 14.900860 151 148 139
9.308654 -4.686448 14.819963 227 225 213
9.372138 -4.688426 14.773241 229 226 211
9.429567 -4.687460 14.718204 225 222 207
9.479063 -4.682684 14.652497 226 222 210
9.530703 -4.679081 14.590343 225 223 210
9.582055 -4.675452 14.528319 224 220 208
9.633427 -4.671945 14.466840 226 220 206
9.687090 -4.669643 14.408934 223 220 205
9.741764 -4.667918 14.352801 222 219 204
9.796509 -4.666311 14.297159 223 220 205
9.856856 -4.667422 14.249178 222 219 204
9.911133 -4.665748 14.193633 222 219 204
9.966662 -4.664737 14.140066 222 219 204
10.021652 -4.663553 14.086166 222 219 204
10.076131 -4.662210 14.031981 222 219 204
10.130122 -4.660722 13.977551 222 219 204
10.188020 -4.661085 13.928260 222 219 204
10.244907 -4.661049 13.878008 226 220 206
10.308950 -4.664287 13.836621 227 221 205
10.374322 -4.668141 13.796922 229 223 207
10.422400 -4.664332 13.736949 231 224 206
10.460909 -4.656397 13.666284 212 201 183
10.506455 -4.651698 13.604412 166 151 132
10.559740 -4.650486 13.551888 216 204 182
10.624098 -4.654157 13.512232 214 201 184
10.706313 -4.665565 13.492698 182 176 164
10.817149 -4.689217 13.504692 170 171 165
10.908869 -4.704501 13.494748 101 99 100
10.978465 -4.710267 13.460186 41 41 43
11.043428 -4.714067 13.420598 62 66 65
11.101100 -4.714812 13.373272 38 40 39
11.159850 -4.716055 13.327308 111 113 110
11.218937 -4.717480 13.281889 17 18 20
11.281312 -4.720309 13.240078 30 30 32
11.328170 -4.716756 13.182362 33 31 32
11.362687 -4.708219 13.112423 33 32 30
11.365039 -4.686666 13.010500 211 212 206
11.388566 -4.673988 12.931054 225 227 224
11.461425 -4.681460 12.901525 110 111 113
11.567971 -4.702488 12.905138 35 37 36
11.630214 -4.705596 12.864738 33 31 32
11.689338 -4.707480 12.821411 31 31 29
11.739918 -4.706000 12.770024 51 56 50
11.795925 -4.706729 12.724093 107 110 101
11.850408 -4.706901 12.676921 115 108 98
11.901002 -4.705595 12.626326 112 98 87
11.952938 -4.704872 12.577251 112 99 83
12.003388 -4.703626 12.527062 129 120 105
12.030460 -4.693399 12.455850 237 234 227
12.036131 -4.675073 12.365954 213 205 186
12.063603 -4.665309 12.296535 211 195 172
12.103580 -4.660447 12.238815 200 186 160
12.150720 -4.658395 12.187802 202 184 160
12.206418 -4.659641 12.144541 204 189 168
12.270559 -4.664101 12.108732 174 165 148
12.326951 -4.665661 12.066311 233 227 211
12.381626 -4.666611 12.022574 225 222 205
12.435108 -4.667153 11.977998 223 220 205
12.485620 -4.666634 11.931121 222 219 204
12.543402 -4.668842 11.890478 222 219 204
12.594110 -4.668477 11.844144 221 218 203
12.653297 -4.671258 11.804919 220 217 202
12.699731 -4.669414 11.755494 219 216 201
12.736966 -4.664290 11.698974 218 215 200
12.785461 -4.663316 11.651767 219 216 201
12.829322 -4.660723 11.601140 217 214 199
12.894880 -4.665968 11.567719 217 214 199
2.657862 -4.952266 22.369360 72 67 61
2.740374 -4.951342 22.291708 70 65 59
2.822337 -4.949903 22.212099 67 64 57
2.903013 -4.946712 22.125347 69 66 61
2.983941 -4.944513 22.043068 69 65 62
3.063293 -4.940221 21.952284 66 62 59
3.143479 -4.937857 21.869875 64 60 57
3.223813 -4.936195 21.790665 57 54 49
3.302915 -4.933089 21.705708 61 58 53
3.380925 -4.928853 21.616379 62 57 53
3.459673 -4.926203 21.533899 65 60 56
3.537761 -4.923060 21.449673 84 79 75
3.613472 -4.917088 21.354172 84 80 68
3.690159 -4.912991 21.266674 179 173 159
3.767508 -4.910231 21.184914 175 166 151
3.843830 -4.906542 21.099676 205 196 181
3.920804 -4.904101 21.019760 205 196 179
3.994576 -4.898063 20.925669 230 221 204
4.069359 -4.893748 20.838833 227 216 198
4.146581 -4.892754 20.765543 235 224 206
4.220892 -4.888648 20.680111 237 225 201
4.293232 -4.882675 20.587599 235 223 199
4.366767 -4.878499 20.502527 241 230 208
4.438481 -4.872687 20.411337 216 204 182
4.512309 -4.869601 20.331161 232 217 194
4.586613 -4.867347 20.254503 230 215 192
4.659885 -4.864301 20.175014 179 164 143
4.733440 -4.861858 20.098124 236 225 205
4.809377 -4.862119 20.031916 228 221 202
4.883406 -4.860668 19.959299 229 224 204
4.956059 -4.858106 19.882648 230 225 206
5.031323 -4.858347 19.816946 231 226 207
5.106609 -4.858792 19.752186 232 227 208
5.179478 -4.857140 19.679644 231 226 207
5.251590 -4.855016 19.605547 232 227 208
5.323159 -4.852636 19.530724 233 228 209
5.394658 -4.850438 19.456818 233 226 207
5.465765 -4.848125 19.382721 232 224 203
5.536513 -4.845732 19.308559 206 195 165
5.608089 -4.844285 19.238146 238 224 197
5.678269 -4.841851 19.164293 171 145 118
5.753162 -4.843613 19.106113 91 71 47
5.830089 -4.847182 19.054682 139 123 98
5.900793 -4.845705 18.984894 122 100 77
5.970351 -4.843489 18.912628 122 97 77
6.037911 -4.839876 18.835531 148 119 101
6.103910 -4.835263 18.755085 115 94 73
6.178292 -4.837468 18.699457 93 72 55
6.249443 -4.837266 18.635307 144 127 109
6.318087 -4.835295 18.565010 222 209 192
6.384827 -4.832067 18.490465 242 226 203
6.449209 -4.827287 18.410662 225 211 184
6.510038 -4.820119 18.322721 227 217 192
6.571781 -4.813910 18.238499 233 225 204
6.635094 -4.809101 18.159513 234 226 207
6.698840 -4.804833 18.082705 235 228 210
6.758519 -4.797901 17.996895 234 227 211
6.800153 -4.778580 17.868496 231 225 209
6.774430 -4.713016 17.581106 231 225 211
6.807096 -4.689016 17.438530 231 225 213
6.869648 -4.685946 17.368448 229 223 209
6.928614 -4.680635 17.290949 229 223 209
6.989902 -4.677092 17.219748 228 222 208
7.052469 -4.674573 17.152262 228 222 208
7.114342 -4.671759 17.083992 227 221 207
7.173973 -4.667653 17.011602 200 194 180
7.235370 -4.664865 16.943880 231 225 211
7.297546 -4.662731 16.878559 229 223 209
7.359884 -4.660843 16.814259 229 223 209
7.423924 -4.660157 16.754133 233 227 213
7.488546 -4.659945 16.695738 228 222 208
7.552732 -4.659571 16.636959 228 222 210
7.616521 -4.659061 16.577892 229 223 211
7.680720 -4.658906 16.520140 229 223 211
7.744453 -4.658572 16.461956 230 224 212
7.808341 -4.658432 16.404551 230 224 212
7.871531 -4.657979 16.346279 231 227 215
7.935405 -4.658025 16.289772 232 226 214
7.998010 -4.657430 16.231350 203 197 183
8.060755 -4.657015 16.173660 230 227 212
8.127076 -4.658738 16.122908 233 222 202
8.193131 -4.660373 16.071976 219 203 178
8.264313 -4.664950 16.030415 206 187 170
8.349217 -4.677193 16.012936 124 99 77
8.446091 -4.695956 16.015678 199 192 186
8.522646 -4.703371 15.982772 146 153 159
8.588830 -4.705111 15.932221 142 146 158
8.651995 -4.705276 15.876904 127 134 144
8.710793 -4.703178 15.814756 117 121 133
8.769011 -4.700885 15.752197 163 163 165
8.832615 -4.701556 15.698882 115 117 129
8.890858 -4.699481 15.637339 109 111 123
8.943908 -4.694807 15.568103 100 104 113
8.997431 -4.690521 15.500287 95 102 110
9.043386 -4.682478 15.421414 119 118 116
9.075613 -4.667606 15.322420 197 166 145
9.103309 -4.650711 15.217878 234 214 187
9.140075 -4.638692 15.128348 218 203 180
9.190798 -4.633897 15.060608 187 179 166
9.236657 -4.626817 14.986382 236 232 221
9.268722 -4.613083 14.892917 176 176 164
9.308747 -4.603508 14.812061 226 224 211
9.373776 -4.606330 14.767657 231 225 211
9.429585 -4.604715 14.710445 229 223 209
9.480145 -4.600659 14.646350 226 223 208
9.532518 -4.597591 14.585316 225 223 210
9.583447 -4.593942 14.522815 223 219 207
9.634854 -4.590630 14.461486 222 219 204
9.687995 -4.588240 14.402980 223 220 205
9.743328 -4.586969 14.347823 223 220 205
9.798124 -4.585529 14.292343 222 219 204
9.858980 -4.586969 14.245106 222 219 204
9.913065 -4.585348 14.189397 222 219 204
9.968598 -4.584469 14.135920 222 219 204
10.022727 -4.583026 14.081017 222 219 204
10.077612 -4.582004 14.027430 222 219 204
10.132311 -4.580970 13.973958 222 219 204
10.190885 -4.581738 13.925568 224 218 204
10.248216 -4.582006 13.875917 225 219 205
10.311522 -4.584966 13.833700 227 221 205
10.377910 -4.589306 13.795269 227 221 205
10.427153 -4.586176 13.736724 230 223 205
10.465494 -4.578408 13.665915 214 203 185
10.509999 -4.573442 13.602885 167 152 133
10.562092 -4.571842 13.549051 217 205 183
10.628759 -4.576540 13.512070 213 200 183
10.711717 -4.588164 13.493394 185 179 167
10.821171 -4.610920 13.503855 164 165 159
10.911736 -4.625554 13.492663 106 104 105
10.983716 -4.632321 13.460752 45 45 47
11.048914 -4.636251 13.421445 64 68 67
11.103930 -4.635981 13.371303 39 41 38
11.162000 -4.637025 13.324669 107 109 106
11.220300 -4.638206 13.278481 22 23 25
11.281162 -4.640475 13.235157 32 32 34
11.329216 -4.637575 13.178757 29 27 28
11.363922 -4.629366 13.109087 29 28 26
11.367906 -4.608941 13.008904 207 208 202
11.395813 -4.598332 12.933918 226 228 225
11.460651 -4.602575 12.896408 114 115 117
11.569629 -4.624313 12.902478 24 25 27
11.632725 -4.627806 12.862966 31 31 31
11.691937 -4.629792 12.819772 47 47 47
11.742383 -4.628383 12.768304 78 84 80
11.797804 -4.628971 12.721864 156 161 154
11.851460 -4.628920 12.673964 175 172 163
11.903274 -4.628206 12.624567 182 172 162
11.957067 -4.628305 12.577262 193 181 169
12.004106 -4.625873 12.523972 187 177 165
12.033740 -4.616893 12.455161 238 235 228
12.041452 -4.599742 12.367160 218 210 191
12.068094 -4.589921 12.297025 213 196 176
12.104828 -4.584017 12.236461 207 193 167
12.154246 -4.582946 12.187503 209 191 167
12.208630 -4.583776 12.143127 205 190 167
12.273520 -4.588533 12.108006 177 168 151
12.330448 -4.590358 12.066081 234 228 212
12.384274 -4.591073 12.021654 226 223 206
12.437957 -4.591771 11.977283 222 219 204
12.488770 -4.591463 11.930693 224 221 206
12.549500 -4.594795 11.892524 221 218 203
12.599426 -4.594242 11.845561 221 218 203
12.655397 -4.595908 11.803735 221 218 203
12.705167 -4.595382 11.757041 220 217 202
12.741214 -4.590006 11.699589 219 216 201
12.785367 -4.587595 11.648964 218 215 200
12.832319 -4.586234 11.600822 218 215 200
12.899873 -4.592185 11.568985 218 215 200
2.665660 -4.851617 22.357988 106 99 89
2.747736 -4.850198 22.277569 88 82 70
2.828965 -4.847795 22.193148 90 83 73
2.909730 -4.845142 22.107939 145 141 132
2.990498 -4.843027 22.025326 181 178 163
3.068877 -4.837571 21.928694 206 203 186
3.149447 -4.836185 21.849783 224 221 204
3.230133 -4.835395 21.773653 234 231 214
3.309069 -4.832390 21.688375 240 237 220
3.386954 -4.828341 21.598995 244 238 222
3.467079 -4.827965 21.525368 239 234 215
3.545616 -4.825730 21.444172 238 233 214
3.620236 -4.818620 21.342918 239 233 209
3.697120 -4.815101 21.256998 194 182 158
3.774520 -4.812684 21.175943 230 214 191
3.850158 -4.808424 21.087559 171 153 129
3.927114 -4.806239 21.008022 178 162 137
4.000958 -4.800641 20.914770 218 202 177
4.074399 -4.795039 20.821869 236 218 194
4.151968 -4.794712 20.750763 179 159 135
4.225655 -4.790208 20.662949 228 203 181
4.297747 -4.784321 20.569874 196 175 154
4.371301 -4.780492 20.485437 143 125 105
4.443439 -4.775497 20.396631 86 69 49
4.518175 -4.773658 20.320761 155 137 113
4.593946 -4.773183 20.250555 231 215 189
4.666597 -4.769732 20.168758 181 169 145
4.739969 -4.767334 20.091402 227 221 197
4.815748 -4.767611 20.024826 232 225 206
4.888959 -4.765568 19.949335 232 225 207
4.960815 -4.762481 19.870005 232 225 207
5.035617 -4.762475 19.802940 232 226 210
5.110681 -4.762906 19.737745 231 225 209
5.182949 -4.760934 19.663446 232 225 209
5.254759 -4.758788 19.588707 233 226 210
5.326762 -4.757053 19.515789 234 227 211
5.398629 -4.755424 19.443499 233 226 208
5.469707 -4.753325 19.369652 232 225 206
5.539854 -4.750654 19.293867 204 195 166
5.611084 -4.749138 19.222700 229 217 191
5.684003 -4.749239 19.157833 150 122 98
5.761447 -4.753234 19.107744 222 207 188
5.839026 -4.757398 19.058344 188 182 160
5.910674 -4.756838 18.991425 222 206 191
5.979778 -4.754424 18.917818 231 215 199
6.047300 -4.750977 18.840635 233 216 200
6.113894 -4.747040 18.761917 218 209 192
6.185415 -4.747121 18.698210 204 195 180
6.255691 -4.746400 18.631741 160 150 138
6.322692 -4.743384 18.557108 185 178 162
6.385977 -4.737821 18.473492 233 220 201
6.448675 -4.732088 18.389582 230 218 192
6.508543 -4.724565 18.299551 225 215 190
6.568661 -4.717517 18.211594 235 227 206
6.631012 -4.712335 18.130655 235 226 209
6.695139 -4.708636 18.055298 235 228 212
6.754518 -4.701844 17.969238 233 226 210
6.794310 -4.681849 17.836901 228 222 206
6.782118 -4.627005 17.582653 230 224 210
6.809144 -4.599800 17.426895 230 223 213
6.872170 -4.597266 17.358156 228 222 208
6.931672 -4.592567 17.282114 228 222 208
6.992122 -4.588695 17.209209 228 222 208
7.053489 -4.585601 17.139254 228 222 208
7.114765 -4.582618 17.069912 226 220 206
7.174890 -4.579068 16.998859 199 193 179
7.236430 -4.576582 16.931684 230 224 210
7.297271 -4.573811 16.863758 228 222 208
7.359005 -4.571746 16.798447 227 221 207
7.422698 -4.571023 16.737865 233 227 213
7.487729 -4.571228 16.680573 227 221 207
7.553116 -4.571744 16.624468 228 222 210
7.617416 -4.571702 16.566635 229 223 211
7.681987 -4.571918 16.509813 229 223 211
7.746008 -4.571906 16.452374 230 224 212
7.809801 -4.571856 16.394960 230 224 212
7.873068 -4.571598 16.337009 229 225 213
7.937757 -4.572253 16.282198 232 226 214
8.000026 -4.571613 16.223297 204 198 184
8.063402 -4.571700 16.166916 230 227 212
8.129887 -4.573614 16.116589 236 223 204
8.195004 -4.574829 16.064102 219 203 178
8.261679 -4.576972 16.014708 204 185 168
8.345082 -4.588317 15.994810 120 95 75
8.445502 -4.608810 16.003897 167 163 160
8.521325 -4.615835 15.969907 91 100 109
8.585787 -4.616767 15.916641 91 100 115
8.648773 -4.616987 15.861252 63 75 89
8.708579 -4.615612 15.801000 78 87 102
8.768938 -4.614626 15.742143 162 165 172
8.829223 -4.613699 15.683629 86 92 106
8.888758 -4.612478 15.624368 88 94 110
8.944675 -4.609502 15.559861 86 91 110
8.999802 -4.606243 15.494699 83 90 106
9.046090 -4.598642 15.416466 123 122 127
9.076393 -4.583203 15.314658 192 164 143
9.102360 -4.565887 15.207662 233 213 186
9.139549 -4.554431 15.118942 220 206 180
9.189054 -4.549256 15.049552 185 178 159
9.234181 -4.542084 14.974428 236 234 219
9.266576 -4.528897 14.881637 189 187 174
9.310805 -4.521658 14.806994 233 229 217
9.376153 -4.524699 14.763131 231 225 211
9.428308 -4.521491 14.700877 230 224 208
9.478325 -4.517380 14.636173 227 224 209
9.532660 -4.515419 14.577993 226 224 211
9.584613 -4.512436 14.517011 224 220 208
9.637247 -4.509873 14.457444 223 220 205
9.691239 -4.508034 14.400163 225 219 205
9.746848 -4.507024 14.345442 225 219 205
9.802320 -4.506029 14.290913 225 219 205
9.864126 -4.507981 14.244961 225 219 205
9.916674 -4.505801 14.187323 224 218 204
9.972059 -4.504981 14.133718 224 218 204
10.025903 -4.503545 14.078521 224 218 204
10.080933 -4.502714 14.025179 224 218 204
10.136804 -4.502323 13.973217 223 220 205
10.196744 -4.503780 13.926540 225 219 205
10.255808 -4.504899 13.879015 226 220 206
10.318434 -4.507608 13.835988 228 222 206
10.383982 -4.511606 13.796571 229 223 207
10.433157 -4.508603 13.737975 229 222 204
10.473734 -4.502024 13.669804 216 205 187
10.517111 -4.496761 13.605481 173 160 141
10.567903 -4.494738 13.550175 219 208 186
10.636967 -4.500456 13.515926 208 195 178
10.720437 -4.512182 13.497812 186 180 168
10.828998 -4.534256 13.507247 161 162 156
10.915732 -4.547145 13.491831 113 111 112
10.987374 -4.553756 13.459586 55 55 57
11.055851 -4.559060 13.423861 87 91 90
11.110951 -4.558925 13.373823 98 100 97
11.168845 -4.559975 13.327014 155 157 154
11.224761 -4.560271 13.278333 138 139 141
11.282704 -4.561430 13.232004 162 162 164
11.328793 -4.557902 13.173642 176 174 175
11.366034 -4.550951 13.106654 177 176 174
11.376622 -4.533593 13.013239 218 219 213
11.400754 -4.521775 12.934467 228 230 227
11.458013 -4.523075 12.889439 158 159 161
11.563466 -4.543175 12.892111 87 88 90
11.628923 -4.547639 12.855029 59 59 61
11.689545 -4.550246 12.813301 37 39 38
11.743553 -4.550338 12.765346 26 35 30
11.800329 -4.551536 12.720253 122 129 122
11.852447 -4.551000 12.670947 117 114 107
11.900073 -4.548814 12.617699 65 55 46
11.956028 -4.549836 12.572488 69 57 45
12.003347 -4.547655 12.519532 94 84 74
12.034054 -4.539332 12.451774 236 233 226
12.049382 -4.525410 12.370720 217 209 190
12.071510 -4.514173 12.296555 211 194 174
12.109118 -4.508786 12.236806 207 193 167
12.159830 -4.508302 12.189014 206 189 163
12.210039 -4.507682 12.141019 206 190 167
12.273894 -4.512079 12.105047 185 174 156
12.329342 -4.513435 12.061910 233 227 211
12.383060 -4.514198 12.017456 225 222 205
12.437211 -4.515154 11.973546 223 220 205
12.488424 -4.515093 11.927352 223 220 205
12.550946 -4.519106 11.890721 222 219 204
12.601092 -4.518735 11.843984 221 218 203
12.656123 -4.520136 11.801435 221 218 203
12.704718 -4.519300 11.753842 220 217 202
12.741191 -4.514261 11.696792 220 217 202
12.787826 -4.512853 11.648188 219 216 201
12.835308 -4.511792 11.600499 218 215 200
12.908375 -4.519645 11.572986 219 216 201
2.674515 -4.753059 22.355261 160 151 136
2.756571 -4.751848 22.275043 163 155 136
2.837811 -4.749728 22.191067 132 125 106
2.918824 -4.747748 22.107992 176 169 153
2.999858 -4.746294 22.027498 203 198 179
3.078638 -4.741762 21.933825 217 212 192
3.159163 -4.740489 21.854687 227 222 202
3.239293 -4.739040 21.775034 229 224 204
3.318026 -4.735980 21.688677 229 224 204
3.395840 -4.732099 21.599096 233 228 208
3.475592 -4.731391 21.523453 232 225 206
3.553847 -4.729010 21.440886 233 226 207
3.628793 -4.722678 21.341787 239 229 202
3.705469 -4.719146 21.254963 195 179 153
3.782691 -4.716737 21.173197 201 181 156
3.859000 -4.713582 21.088568 88 66 43
3.936619 -4.712407 21.012543 145 127 103
4.011270 -4.708030 20.923372 151 135 110
4.085746 -4.703878 20.835474 108 92 69
4.162883 -4.703165 20.762165 117 96 75
4.236591 -4.698894 20.674374 102 81 60
4.308887 -4.693470 20.582157 85 67 47
4.383228 -4.690677 20.501101 147 131 115
4.455340 -4.685852 20.412012 222 207 186
4.528388 -4.682390 20.328819 223 207 182
4.602441 -4.680291 20.251450 230 215 186
4.674862 -4.676836 20.168856 182 173 144
4.748138 -4.674547 20.091253 228 227 199
4.823477 -4.674543 20.023077 231 226 206
4.896133 -4.672172 19.945623 231 226 207
4.967678 -4.669022 19.865332 230 224 208
5.041354 -4.668139 19.794315 232 226 212
5.115252 -4.667676 19.725172 231 225 211
5.187740 -4.666140 19.652002 231 225 211
5.259815 -4.664463 19.578510 232 226 212
5.331823 -4.662953 19.505905 233 226 210
5.403957 -4.661771 19.434803 230 225 206
5.474986 -4.659851 19.361053 230 225 206
5.544033 -4.656484 19.281952 204 193 165
5.614116 -4.654234 19.207426 225 214 192
5.690055 -4.657001 19.152401 146 115 94
5.772161 -4.664844 19.116888 214 202 188
5.848382 -4.667948 19.063278 216 217 199
5.920908 -4.668220 18.999006 224 217 207
5.990790 -4.666577 18.927670 210 207 192
6.058491 -4.663447 18.850954 198 192 178
6.125602 -4.660092 18.773655 197 198 182
6.196007 -4.659436 18.706720 206 204 191
6.265617 -4.658347 18.638367 221 217 206
6.331353 -4.654582 18.560282 206 203 188
6.391916 -4.647283 18.469419 227 214 197
6.452309 -4.640161 18.379580 235 220 197
6.510569 -4.631814 18.285618 220 209 187
6.569299 -4.624110 18.194407 238 230 209
6.630694 -4.618552 18.111393 235 226 209
6.693444 -4.614170 18.032965 235 228 212
6.751767 -4.606992 17.944723 234 228 212
6.788244 -4.585368 17.804838 231 225 209
6.781236 -4.535302 17.563707 229 223 209
6.810919 -4.510577 17.414648 228 222 210
6.872359 -4.507219 17.342463 228 222 208
6.933373 -4.503764 17.270189 228 222 208
6.993508 -4.499925 17.196810 228 222 208
7.054518 -4.496826 17.126299 228 222 208
7.115931 -4.494148 17.057507 226 220 206
7.176516 -4.491113 16.987692 198 192 178
7.238852 -4.489322 16.922445 228 222 208
7.298474 -4.486006 16.852121 228 222 208
7.360972 -4.484600 16.788630 228 222 208
7.425738 -4.484684 16.730455 233 227 213
7.490644 -4.484952 16.673061 226 220 208
7.556167 -4.485680 16.617382 228 222 210
7.620529 -4.485814 16.559820 228 222 210
7.684382 -4.485748 16.501728 229 223 211
7.746937 -4.485032 16.441597 230 224 212
7.809948 -4.484684 16.382872 230 224 212
7.873496 -4.484740 16.325657 229 225 213
7.938485 -4.485697 16.271597 232 226 214
7.999672 -4.484612 16.210876 204 198 184
8.062559 -4.484575 16.153803 231 225 211
8.131276 -4.487827 16.107714 230 217 198
8.200365 -4.491321 16.062481 223 207 182
8.267012 -4.493530 16.013103 198 179 162
8.348094 -4.503532 15.989196 119 94 74
8.451223 -4.525207 16.003029 158 154 155
8.526674 -4.532020 15.968450 83 93 105
8.589366 -4.532127 15.912264 79 87 106
8.650082 -4.531288 15.853186 58 70 86
8.706769 -4.528461 15.787930 79 88 105
8.767471 -4.527817 15.729833 155 162 170
8.827644 -4.526994 15.671326 85 94 109
8.887745 -4.526225 15.613156 83 92 109
8.943650 -4.523438 15.548807 83 89 105
9.000015 -4.520998 15.485752 88 95 111
9.046886 -4.513964 15.408579 133 133 135
9.075768 -4.498246 15.304762 189 158 138
9.095474 -4.478329 15.188487 233 214 184
9.132040 -4.466938 15.099107 225 211 184
9.185342 -4.463847 15.035604 184 177 158
9.234095 -4.458686 14.965992 230 227 212
9.266072 -4.445675 14.872753 184 182 169
9.315004 -4.440925 14.805006 232 228 216
9.378506 -4.443156 14.758583 231 225 211
9.430721 -4.440154 14.696508 230 224 208
9.481274 -4.436486 14.632645 226 223 208
9.536967 -4.435304 14.576417 225 223 210
9.589741 -4.432864 14.516615 224 220 208
9.643577 -4.431005 14.458720 225 222 207
9.698180 -4.429581 14.402287 226 220 206
9.753747 -4.428673 14.347531 225 219 205
9.808511 -4.427481 14.292097 225 219 205
9.870619 -4.429636 14.246562 225 219 205
9.922353 -4.427239 14.187910 224 218 204
9.977285 -4.426339 14.133766 224 218 204
10.031709 -4.425289 14.079339 224 218 204
10.086155 -4.424322 14.025303 225 219 205
10.140247 -4.423273 13.971185 225 219 205
10.199032 -4.424314 13.923154 226 220 206
10.259130 -4.425967 13.876950 228 220 207
10.322308 -4.428969 13.834638 228 222 206
10.386945 -4.432616 13.794185 229 223 207
10.436378 -4.429883 13.735956 230 223 205
10.478404 -4.424138 13.669538 214 203 185
10.519947 -4.418309 13.603146 179 166 147
10.570178 -4.416197 13.547261 218 207 185
10.640414 -4.422402 13.514396 213 200 181
10.724038 -4.434085 13.496490 186 180 166
10.834746 -4.456743 13.508332 158 159 153
10.919439 -4.468673 13.490682 128 126 127
10.990247 -4.474934 13.457565 49 49 51
11.060118 -4.480808 13.423395 55 59 60
11.116621 -4.481339 13.374898 26 28 27
11.173044 -4.481884 13.326554 91 93 90
11.227031 -4.481514 13.275886 6 7 9
11.284652 -4.482631 13.229278 21 21 23
11.328774 -4.478503 13.168953 29 27 28
11.365703 -4.471661 13.101728 34 33 31
11.376077 -4.454636 13.008192 195 196 190
11.400802 -4.443364 12.930107 228 230 227
11.457247 -4.444436 12.884342 134 135 137
11.555016 -4.461350 12.879499 37 37 37
11.630567 -4.469699 12.852419 30 28 29
11.692037 -4.472685 12.811567 27 29 28
11.747023 -4.473247 12.764597 34 40 36
11.804679 -4.474854 12.720380 140 147 139
11.857371 -4.474638 12.671648 123 119 110
11.906733 -4.473233 12.620048 119 105 96
11.958146 -4.472648 12.570643 116 100 87
12.004509 -4.470252 12.516858 116 106 94
12.033348 -4.461491 12.447464 242 239 232
12.051404 -4.448911 12.368949 219 211 192
12.072992 -4.437772 12.294359 215 198 178
12.111457 -4.432889 12.235424 211 197 171
12.159929 -4.431702 12.185706 206 189 163
12.211585 -4.431713 12.139031 208 192 169
12.271074 -4.434570 12.099336 187 176 158
12.330264 -4.437340 12.059479 231 225 209
12.384925 -4.438523 12.015877 225 222 205
12.437982 -4.439173 11.971089 223 220 205
12.488606 -4.439003 11.924456 222 219 204
12.551948 -4.443333 11.888553 222 219 204
12.600995 -4.442682 11.840962 221 218 203
12.657669 -4.444728 11.799805 222 219 204
12.699121 -4.441531 11.746499 220 217 202
12.738965 -4.437845 11.692237 220 217 202
12.791398 -4.438552 11.648296 219 216 201
12.841288 -4.438424 11.602529 218 215 200
12.911103 -4.445125 11.572489 219 216 201
2.685740 -4.658777 22.371658 100 88 74
2.766541 -4.655520 22.281382 212 201 181
2.846906 -4.652141 22.190887 175 167 146
2.928454 -4.651263 22.111961 202 193 176
3.010383 -4.651414 22.037880 202 197 178
3.089622 -4.647813 21.947294 211 205 189
3.169090 -4.645098 21.860975 228 222 206
3.248381 -4.642612 21.775974 233 227 211
3.326926 -4.639532 21.688656 233 226 210
3.404250 -4.635242 21.596336 234 227 211
3.483992 -4.634728 21.520901 233 224 209
3.561892 -4.632122 21.436560 232 223 208
3.637241 -4.626651 21.340075 241 233 210
3.713692 -4.623097 21.252272 201 186 165
3.790972 -4.620998 21.171070 200 182 162
3.869081 -4.620265 21.096008 115 96 79
3.949047 -4.622020 21.031834 188 175 158
4.025379 -4.619764 20.950703 187 180 162
4.102177 -4.618380 20.873552 196 189 171
4.177964 -4.616174 20.793175 212 200 186
4.251297 -4.611615 20.703136 207 198 183
4.323104 -4.605825 20.608271 178 172 158
4.396426 -4.602071 20.522314 150 146 134
4.467928 -4.596794 20.430323 199 191 178
4.539735 -4.592229 20.341656 219 206 189
4.611194 -4.587689 20.253428 230 214 191
4.682879 -4.583736 20.167957 181 169 147
4.755662 -4.581180 20.088551 232 225 206
4.829805 -4.580204 20.015890 231 226 206
4.901913 -4.577551 19.936609 231 226 206
4.973204 -4.574423 19.855671 229 226 207
5.046305 -4.573225 19.782841 229 226 209
5.119915 -4.572707 19.712980 229 226 209
5.191561 -4.570656 19.637167 230 227 210
5.263948 -4.569489 19.565145 232 226 210
5.336064 -4.568301 19.493261 232 227 208
5.407936 -4.567113 19.421604 233 226 207
5.478381 -4.564940 19.346268 234 226 207
5.546734 -4.561273 19.265287 206 191 162
5.617431 -4.559770 19.193108 224 208 185
5.695921 -4.564715 19.146412 142 105 86
5.782347 -4.575975 19.124388 217 203 190
5.857878 -4.578595 19.068638 218 222 205
5.930520 -4.579076 19.004715 222 219 210
6.000470 -4.577647 18.933588 215 213 201
6.068466 -4.574929 18.857735 213 209 198
6.135738 -4.571885 18.780895 201 201 189
6.205329 -4.570763 18.711655 216 216 206
6.274272 -4.569338 18.641476 219 215 206
6.338456 -4.564665 18.559219 209 203 191
6.397484 -4.556569 18.464373 226 210 194
6.455955 -4.548397 18.369644 233 215 191
6.512262 -4.539031 18.270861 217 205 181
6.571815 -4.532230 18.182081 241 233 212
6.631910 -4.526073 18.096056 235 226 209
6.693256 -4.521014 18.014444 235 228 210
6.750526 -4.513467 17.923977 235 230 211
6.782164 -4.489283 17.772816 230 225 206
6.774653 -4.440131 17.531191 228 222 206
6.812399 -4.421344 17.401739 228 222 208
6.873499 -4.418001 17.329021 227 221 207
6.935715 -4.415543 17.259762 227 221 207
6.995780 -4.411893 17.186447 227 221 207
7.056733 -4.408977 17.116024 227 221 207
7.118340 -4.406627 17.047867 226 220 206
7.179779 -4.404326 16.980114 198 192 178
7.242764 -4.403110 16.916428 227 221 207
7.302596 -4.400128 16.846701 227 221 207
7.364533 -4.398556 16.782171 224 218 204
7.429399 -4.398838 16.724346 233 227 213
7.493767 -4.398925 16.665991 226 220 208
7.558831 -4.399515 16.609535 228 222 210
7.622455 -4.399365 16.550659 228 222 210
7.685694 -4.399096 16.491535 229 223 211
7.747887 -4.398337 16.430885 230 224 212
7.810566 -4.397958 16.371712 230 224 212
7.874352 -4.398293 16.315140 228 224 212
7.939958 -4.399718 16.262413 232 226 214
7.999921 -4.398128 16.199598 204 198 184
8.063262 -4.398484 16.143541 231 225 211
8.132704 -4.402207 16.098928 232 219 200
8.205184 -4.407584 16.059900 222 206 181
8.274787 -4.411440 16.015818 198 179 164
8.354757 -4.420777 15.989968 119 94 74
8.456501 -4.441423 16.001402 166 160 164
8.532088 -4.448298 15.967112 95 101 115
8.595183 -4.448732 15.911672 77 82 102
8.653697 -4.446905 15.848983 68 77 92
8.710236 -4.444186 15.783587 80 87 103
8.769404 -4.442910 15.723089 161 164 169
8.832413 -4.443651 15.669279 94 101 111
8.891049 -4.442292 15.608848 105 113 124
8.944379 -4.438416 15.540538 110 114 123
8.999944 -4.435765 15.476379 114 121 127
9.046813 -4.429001 15.399366 148 147 142
9.071486 -4.411687 15.289299 181 151 125
9.091070 -4.392239 15.173092 233 212 181
9.125973 -4.380419 15.081456 223 207 182
9.182081 -4.378864 15.022341 185 177 164
9.233227 -4.375068 14.956429 222 218 209
9.267966 -4.363726 14.867359 187 185 173
9.317822 -4.359618 14.801045 234 230 218
9.382288 -4.362370 14.756071 229 223 209
9.436572 -4.360489 14.696975 230 224 208
9.488439 -4.357598 14.634983 227 224 209
9.543457 -4.356238 14.577848 225 223 210
9.596416 -4.354034 14.518332 225 221 209
9.650558 -4.352452 14.460876 225 222 207
9.705685 -4.351393 14.405163 227 221 207
9.762247 -4.351045 14.351738 226 220 206
9.816252 -4.349642 14.295312 225 219 205
9.876827 -4.351189 14.247799 224 218 204
9.928254 -4.348808 14.188785 225 219 205
9.982451 -4.347712 14.133739 225 219 205
10.037474 -4.347046 14.080107 225 219 205
10.090995 -4.345807 14.024954 225 219 205
10.143353 -4.344149 13.968742 225 219 205
10.201749 -4.345118 13.920298 226 220 206
10.260327 -4.346212 13.872320 228 220 207
10.323659 -4.349338 13.830271 227 221 205
10.388421 -4.353082 13.790041 229 223 207
10.438155 -4.350636 13.732248 231 224 206
10.478925 -4.344592 13.664447 215 204 186
10.521030 -4.339214 13.598798 185 172 153
10.572804 -4.337879 13.544753 216 205 183
10.642972 -4.344051 13.511864 211 198 179
10.725807 -4.355311 13.493120 190 184 170
10.835946 -4.377439 13.504371 157 158 150
10.922132 -4.389856 13.488420 125 124 122
10.996620 -4.397568 13.459365 46 46 48
11.065013 -4.402854 13.423610 61 65 66
11.119077 -4.402520 13.372538 36 38 37
11.176847 -4.403689 13.325676 88 90 87
11.228363 -4.402471 13.272459 26 27 29
11.284954 -4.403278 13.224844 28 28 30
11.329762 -4.399598 13.165306 30 28 29
11.365275 -4.392446 13.096711 33 32 30
11.379058 -4.377135 13.006721 186 187 181
11.405791 -4.366930 12.930710 227 229 226
11.455704 -4.365617 12.878478 145 146 148
11.547263 -4.380007 12.867587 34 34 34
11.630802 -4.391315 12.848438 33 29 28
11.694199 -4.395071 12.809517 31 31 29
11.749281 -4.395761 12.762690 26 31 25
11.805225 -4.396811 12.716893 142 148 138
11.857922 -4.396706 12.668229 149 142 132
11.910254 -4.396517 12.619468 119 103 90
11.959361 -4.395203 12.567966 111 93 79
12.001196 -4.391313 12.510084 107 97 85
12.029415 -4.382593 12.440224 239 236 231
12.046080 -4.369845 12.360561 223 214 197
12.073439 -4.361077 12.291241 212 195 175
12.112087 -4.356447 12.232531 211 197 171
12.159771 -4.355103 12.182178 206 189 163
12.214315 -4.356236 12.138079 208 192 167
12.271380 -4.358288 12.096327 193 180 161
12.330578 -4.361113 12.056532 229 223 207
12.386425 -4.362789 12.013990 227 224 207
12.437380 -4.362796 11.967481 224 221 206
12.486948 -4.362366 11.920027 222 219 204
12.551303 -4.367072 11.885028 223 220 205
12.602628 -4.367312 11.839364 223 220 205
12.659666 -4.369545 11.798544 222 219 204
12.702598 -4.367002 11.746473 220 217 202
12.742210 -4.363396 11.692058 220 217 202
12.797655 -4.365201 11.650533 220 217 202
12.849032 -4.365664 11.605945 220 217 202
12.915606 -4.371251 11.573376 220 217 202
2.776830 -4.559702 22.290180 226 214 192
2.856288 -4.555067 22.192884 209 201 178
2.937511 -4.553877 22.111788 226 218 197
3.019632 -4.554507 22.039276 215 208 190
3.098224 -4.550205 21.944506 217 212 193
3.177263 -4.547134 21.855690 228 225 206
3.256676 -4.545094 21.771858 231 228 209
3.335663 -4.542901 21.687635 231 228 209
3.412613 -4.538394 21.593323 231 226 207
3.491948 -4.537553 21.515768 232 227 208
3.569795 -4.535142 21.431471 232 225 207
3.645266 -4.530154 21.336029 238 230 209
3.722422 -4.527743 21.252369 213 196 176
3.800619 -4.526969 21.176210 200 178 154
3.879826 -4.527690 21.106861 117 98 81
3.960380 -4.530204 21.045540 182 176 160
4.037348 -4.528825 20.967388 214 207 191
4.113152 -4.526465 20.885235 220 218 205
4.188384 -4.523821 20.802143 214 208 196
4.262129 -4.519934 20.713991 183 181 168
4.333906 -4.514362 20.618940 218 216 203
4.406847 -4.510420 20.531244 215 211 200
4.478547 -4.505587 20.440084 220 214 202
4.548237 -4.499145 20.342459 216 201 182
4.616815 -4.492049 20.242476 235 221 195
4.688126 -4.488024 20.155857 186 178 157
4.760582 -4.485421 20.075535 228 223 203
4.834228 -4.484210 20.001320 231 226 207
4.906296 -4.481791 19.922308 232 227 208
4.977361 -4.478735 19.840931 232 226 210
5.049637 -4.477039 19.765467 232 226 210
5.123045 -4.476571 19.695311 232 226 210
5.193745 -4.473963 19.616589 233 227 211
5.265770 -4.472738 19.543795 233 227 211
5.338293 -4.472141 19.473789 232 227 208
5.409978 -4.471041 19.401958 233 226 207
5.479877 -4.468686 19.325277 235 229 205
5.548014 -4.465140 19.244068 201 187 158
5.618728 -4.463902 19.172413 222 206 183
5.699576 -4.470803 19.133520 137 103 76
5.791440 -4.486218 19.128506 211 199 185
5.866815 -4.488797 19.072298 221 219 204
5.937853 -4.488192 19.003620 225 223 210
6.005596 -4.485294 18.926125 215 211 199
6.073080 -4.482425 18.849016 213 206 196
6.140474 -4.479704 18.772758 210 206 194
6.209542 -4.478397 18.702269 220 214 202
6.278516 -4.477195 18.632410 221 217 205
6.341887 -4.472218 18.548187 211 205 193
6.400265 -4.464014 18.451883 220 202 182
6.456084 -4.454365 18.350462 236 220 195
6.511186 -4.444569 18.248943 210 198 174
6.571559 -4.438664 18.162693 241 233 212
6.633467 -4.434035 18.081625 236 227 210
6.696308 -4.430245 18.004038 236 229 211
6.753301 -4.422840 17.913145 236 229 210
6.782847 -4.397973 17.757240 230 224 208
6.777207 -4.351215 17.520555 229 223 209
6.818502 -4.335227 17.399744 229 223 209
6.879042 -4.331738 17.325834 228 222 208
6.940526 -4.329015 17.255022 226 220 206
7.001706 -4.326270 17.184370 227 221 207
7.063220 -4.323891 17.115303 227 221 207
7.124245 -4.321369 17.045952 226 220 206
7.185271 -4.319002 16.977398 197 191 177
7.248376 -4.318016 16.914072 229 223 209
7.307858 -4.315023 16.843708 228 222 208
7.369522 -4.313458 16.778713 226 220 206
7.434829 -4.314125 16.721905 233 227 213
7.500379 -4.315019 16.666050 228 222 210
7.565526 -4.315769 16.609819 228 222 210
7.628004 -4.315103 16.548725 229 223 211
7.689656 -4.314083 16.486567 229 223 211
7.751112 -4.313068 16.424610 229 223 211
7.814528 -4.313240 16.366983 231 225 213
7.878306 -4.313698 16.310509 231 225 211
7.943213 -4.314850 16.256584 233 227 215
8.003218 -4.313450 16.193975 204 200 188
8.064473 -4.312827 16.134230 231 225 209
8.132618 -4.315935 16.087431 227 216 194
8.205543 -4.321584 16.049370 224 208 183
8.277792 -4.326883 16.010120 197 179 157
8.362698 -4.338712 15.992971 128 105 89
8.459438 -4.356503 15.995749 184 171 163
