9.208656 1.334616 14.653598 239 234 215
9.252419 1.328233 14.599496 238 233 214
9.292330 1.321396 14.540298 240 233 214
9.332404 1.314664 14.482150 240 235 215
9.362989 1.306736 14.410706 241 233 210
9.389497 1.298368 14.334263 238 228 203
9.414204 1.289874 14.256269 212 198 172
-4.900454 2.158671 19.323505 14 12 17
-4.787988 2.142653 19.193214 56 55 60
-4.680679 2.128453 19.078968 13 14 18
-4.559651 2.107895 18.907928 4 5 9
-4.464339 2.098209 18.833622 10 9 14
-4.372696 2.089959 18.772045 7 2 8
-4.282474 2.082184 18.714642 13 3 11
-4.200952 2.078308 18.692009 28 12 22
-4.125766 2.077408 18.695976 18 12 16
-4.055682 2.079046 18.722668 28 27 32
-3.982393 2.079268 18.736736 26 25 30
-3.914673 2.082396 18.776871 17 16 21
-3.841852 2.083144 18.795746 16 15 20
-3.765858 2.082379 18.801090 16 15 20
-3.691781 2.082715 18.816345 13 12 17
-3.048465 1.846856 16.732014 6 5 10
-2.951586 1.829487 16.586632 10 9 15
-2.869197 1.820005 16.512096 13 12 18
-2.786696 1.810140 16.434027 10 9 15
-2.707768 1.802138 16.372665 10 9 15
-2.627380 1.792951 16.300545 10 9 15
-2.550198 1.785511 16.244122 10 9 15
-2.470051 1.775856 16.167614 9 8 14
-2.391188 1.766703 16.095558 10 9 15
-2.309020 1.754882 15.999271 11 10 16
-2.231816 1.746112 15.930496 12 11 17
-2.154470 1.736878 15.857440 17 16 22
-2.078375 1.728197 15.789310 9 8 14
-2.003212 1.719867 15.724297 8 7 13
-1.930421 1.713085 15.673248 8 7 13
-1.857026 1.705514 15.614992 11 10 16
-1.783867 1.697802 15.555372 12 11 17
-1.711413 1.690346 15.498026 12 11 17
-1.638364 1.681974 15.432264 8 7 13
-1.566576 1.674360 15.373335 6 7 12
-1.495094 1.666639 15.313369 9 9 17
-1.423167 1.658016 15.245089 36 36 44
-1.350208 1.647736 15.161602 0 0 7
-1.278126 1.637733 15.080549 7 6 12
-1.208553 1.629981 15.019976 10 9 15
-1.139820 1.622735 14.963967 5 6 11
-1.073371 1.617966 14.930576 3 3 11
-1.008183 1.614671 14.910669 0 0 9
-0.944957 1.614141 14.916101 11 15 26
-0.881857 1.614035 14.925453 12 16 28
-0.818991 1.614620 14.941187 138 144 156
-0.756205 1.615775 14.962197 113 120 130
-0.693483 1.617607 14.989480 127 134 144
-0.630228 1.619040 15.013152 131 138 148
-0.567122 1.621530 15.046608 118 125 135
-0.503707 1.624251 15.082258 78 82 93
-0.439876 1.626991 15.118151 34 38 47
-0.375731 1.630088 15.157413 18 21 28
-0.311426 1.634284 15.206911 26 29 34
-0.246989 1.640325 15.273552 34 35 39
-0.181773 1.645984 15.336772 32 33 38
-0.116034 1.652746 15.410327 44 48 51
-0.049624 1.660527 15.493440 18 19 24
0.017557 1.669955 15.591974 52 52 52
0.085730 1.680447 15.700556 18 16 19
0.155164 1.696822 15.863957 15 15 17
0.227114 1.726204 16.148531 26 27 31
0.894500 1.382155 13.063701 71 76 82
0.946580 1.371652 12.974722 13 18 24
1.001708 1.366719 12.937958 14 19 22
1.053788 1.357949 12.865067 16 21 25
1.106227 1.350426 12.803812 9 14 20
1.158754 1.343616 12.749192 1 6 12
1.210750 1.336692 12.693434 10 13 18
1.262030 1.329468 12.634768 18 19 23
1.313171 1.322596 12.579347 38 39 43
1.364444 1.316302 12.529308 20 21 25
1.415350 1.310032 12.479442 9 14 18
1.464768 1.302759 12.420013 114 121 129
1.513549 1.295355 12.359262 134 144 153
1.561213 1.287430 12.293498 111 119 130
1.609955 1.280832 12.240226 6 15 24
1.658975 1.274789 12.192160 57 64 72
1.707756 1.268855 12.145058 41 48 56
1.755870 1.262707 12.095861 7 14 22
1.803963 1.256823 12.049112 14 21 29
1.851149 1.250574 11.998829 6 10 19
1.898052 1.244409 11.949270 19 22 29
1.943805 1.237764 11.895081 7 11 14
1.989492 1.231359 11.843100 12 17 20
2.035682 1.225518 11.796432 13 18 22
2.080520 1.219104 11.744237 28 35 41
2.122880 1.211524 11.680806 171 180 187
2.165070 1.204155 11.619298 158 167 176
2.208658 1.197830 11.567726 170 179 188
2.250812 1.190978 11.511011 169 177 188
2.293555 1.184679 11.459534 170 179 188
2.336925 1.178911 11.413095 172 182 192
2.381055 1.173706 11.371993 185 158 163
2.425844 1.168972 11.335387 169 107 108
2.475043 1.166432 11.319867 99 56 65
2.532266 1.167587 11.339961 40 41 46
2.596038 1.171531 11.387024 48 57 54
2.664202 1.177140 11.450274 45 50 43
2.731007 1.181851 11.504951 126 128 117
2.798763 1.186683 11.560915 112 114 103
2.867601 1.191682 11.618604 114 115 107
2.937824 1.196958 11.679088 91 94 83
3.011157 1.203171 11.748784 154 158 144
3.083310 1.208610 11.811107 157 163 149
3.152503 1.212646 11.859914 173 179 167
3.240563 1.223454 11.974681 108 113 106
3.322373 1.231510 12.062873 80 76 67
5.464733 1.907009 18.685253 117 109 98
5.530766 1.896826 18.601528 116 108 97
5.599367 1.887742 18.528435 116 109 99
5.665631 1.878099 18.449764 115 108 98
5.732736 1.868947 18.375790 128 121 113
5.777508 1.852942 18.234531 127 123 114
5.814476 1.834936 18.073433 123 118 112
5.922384 1.839103 18.129784 121 113 110
5.987646 1.830210 18.057922 125 117 114
6.047435 1.819883 17.971840 140 135 129
6.110976 1.810878 17.898643 137 133 124
6.172015 1.801339 17.820087 130 123 113
6.233712 1.792186 17.745216 116 106 97
6.300669 1.784682 17.686520 114 105 96
6.362965 1.776035 17.616444 120 112 101
6.423800 1.767161 17.544022 118 111 101
6.477481 1.756555 17.454357 120 113 105
6.524363 1.744388 17.349072 126 121 117
6.561331 1.729921 17.220818 136 131 128
6.625911 1.722815 17.165432 136 131 127
6.685228 1.714505 17.097996 145 140 134
6.742662 1.705878 17.027306 148 143 137
6.799749 1.697322 16.957226 149 144 140
6.858552 1.689333 16.892696 142 137 133
6.913912 1.680663 16.821270 146 143 138
6.968950 1.672071 16.750523 151 148 143
7.024697 1.663795 16.682814 151 146 140
7.080671 1.655711 16.616940 149 144 138
7.137193 1.647887 16.553558 144 140 131
7.192880 1.640005 16.489498 125 122 115
7.240330 1.630439 16.408466 138 133 127
7.278807 1.619095 16.309448 150 143 135
7.355675 1.616195 16.295120 145 141 132
7.431666 1.613112 16.278950 134 129 123
7.486941 1.605703 16.219219 146 141 135
7.546097 1.599208 16.168612 144 139 133
7.602584 1.592258 16.113338 145 138 132
7.656573 1.584903 16.053904 144 139 133
7.712230 1.577990 15.998835 144 141 134
7.769375 1.571466 15.947638 145 140 134
7.828527 1.565422 15.901213 143 139 130
7.888713 1.559653 15.857512 141 137 128
7.945506 1.553308 15.807907 144 140 131
8.003340 1.547240 15.761052 142 135 125
8.064642 1.541893 15.721455 132 125 115
8.124463 1.536333 15.679633 134 130 121
8.184385 1.530854 15.638586 143 139 130
8.241446 1.524922 15.592859 145 141 132
8.293920 1.518245 15.539461 158 152 140
8.351219 1.512503 15.495541 176 169 151
8.404816 1.506182 15.445642 199 191 170
8.454976 1.499348 15.390412 212 201 179
8.504757 1.492538 15.335342 224 212 188
8.549798 1.485016 15.272889 230 218 192
8.605680 1.479404 15.229943 234 223 195
8.660006 1.473598 15.184935 235 225 198
8.715652 1.468072 15.142751 238 229 200
8.768826 1.462206 15.097002 241 232 203
8.819698 1.456038 15.048069 244 233 203
8.869711 1.449805 14.998402 244 235 206
8.924232 1.444352 14.956709 246 236 209
8.973610 1.438158 14.907290 244 237 211
9.019890 1.431559 14.853608 245 237 214
9.072102 1.425942 14.810011 245 235 210
9.121392 1.419944 14.762403 244 234 209
9.161989 1.412716 14.701951 243 235 212
9.207220 1.406263 14.649451 240 234 212
9.249542 1.399460 14.593223 241 235 213
9.287141 1.392054 14.530622 241 233 210
9.326417 1.384981 14.471392 242 234 211
9.360023 1.377188 14.404550 242 235 209
9.389973 1.368980 14.333251 243 231 205
9.415116 1.360208 14.255934 218 204 177
-4.893161 2.239855 19.312717 44 42 47
-4.785432 2.225375 19.200001 50 49 54
-4.682841 2.212843 19.103844 51 50 55
-4.568242 2.194538 18.958115 3 4 8
-4.476121 2.186142 18.897198 4 5 9
-4.390125 2.180445 18.859398 5 4 9
-4.301282 2.173294 18.809074 7 5 10
-4.219512 2.169437 18.787010 6 4 9
-4.146239 2.169749 18.800777 3 1 4
-4.077830 2.172624 18.836632 5 5 7
-4.005859 2.173881 18.858616 11 11 13
-3.934283 2.175497 18.883736 4 4 6
-3.855688 2.173550 18.878193 5 5 7
-3.777251 2.171725 18.873718 6 5 10
-3.704847 2.173278 18.898399 9 8 13
-3.148893 1.940238 16.907619 4 3 8
-3.046912 1.919975 16.742569 7 6 11
-2.952651 1.903583 16.610809 7 6 11
-2.866563 1.891596 16.517029 9 8 14
-2.787349 1.883495 16.456806 7 6 12
-2.707756 1.874890 16.392155 8 7 13
-2.627197 1.865357 16.319401 8 7 13
-2.548399 1.856668 16.253876 9 8 14
-2.467321 1.846087 16.171869 9 8 14
-2.388933 1.836994 16.102692 9 8 14
-2.305568 1.823921 15.998840 8 7 13
-2.227456 1.814193 15.923981 7 6 12
-2.149660 1.804295 15.847547 9 8 14
-2.073479 1.795238 15.778359 8 7 13
-1.997579 1.786007 15.707585 7 6 12
-1.925095 1.779227 15.658114 8 7 13
-1.852247 1.771846 15.603345 9 8 14
-1.779027 1.763794 15.542663 8 7 13
-1.706108 1.755627 15.480909 9 8 14
-1.633131 1.746984 15.414927 9 8 14
-1.561621 1.739335 15.357577 13 14 19
-1.490231 1.731395 15.297616 8 9 14
-1.418096 1.722186 15.226475 7 8 13
-1.345639 1.712023 15.146880 71 72 77
-1.273708 1.701772 15.066438 4 3 9
-1.204183 1.693751 15.005472 5 4 10
-1.134950 1.685539 14.942765 12 13 18
-1.068387 1.680362 14.906674 90 93 100
-1.002595 1.675981 14.877545 103 106 115
-0.938697 1.674258 14.871806 81 85 94
-0.875286 1.673407 14.873737 91 98 108
-0.811910 1.672817 14.877991 36 42 54
-0.748741 1.672868 14.887918 68 75 85
-0.685708 1.673570 14.903627 101 107 119
-0.622360 1.674105 14.917891 43 49 61
-0.559257 1.675777 14.942242 26 32 44
-0.496028 1.677956 14.971123 37 41 53
-0.432389 1.679991 14.998784 85 89 100
-0.368361 1.681896 15.025336 111 114 123
-0.304340 1.685154 15.063944 67 70 79
-0.240299 1.690407 15.120298 37 40 45
-0.175756 1.696299 15.182427 14 17 24
-0.110913 1.704905 15.268745 3 7 6
-0.045211 1.713860 15.358306 19 20 24
0.021304 1.724837 15.465983 186 186 178
0.088916 1.735491 15.570955 145 141 142
0.157495 1.742270 15.641573 45 41 40
0.228856 1.778738 15.976869 45 43 46
0.788671 1.458181 13.207718 140 145 148
0.842402 1.447949 13.124710 8 13 17
0.893890 1.434997 13.017157 12 15 20
0.947103 1.426374 12.948385 9 12 17
0.999324 1.417093 12.873613 17 21 24
1.052626 1.410248 12.820684 20 23 28
1.105673 1.403616 12.769613 43 47 56
1.157412 1.395822 12.708004 46 51 57
1.209841 1.389466 12.659298 11 14 21
1.260544 1.381559 12.596531 9 10 15
1.311582 1.374582 12.542081 10 11 16
1.363346 1.368813 12.498506 17 20 25
1.413978 1.362246 12.447648 4 9 15
1.462873 1.354403 12.385179 175 182 190
1.510992 1.346322 12.320466 160 169 178
1.559602 1.339149 12.263921 33 43 55
1.608555 1.332660 12.213502 65 74 89
1.657460 1.326461 12.165663 72 82 94
1.706135 1.320379 12.118835 40 49 64
1.754443 1.314300 12.071976 18 30 46
1.802180 1.308074 12.023725 24 36 50
1.849177 1.301597 11.973124 16 23 39
1.896218 1.295434 11.925325 11 15 27
1.942253 1.288855 11.873677 11 16 22
1.987976 1.282350 11.822632 13 20 26
2.033321 1.275870 11.771763 8 15 21
2.077353 1.268842 11.715816 110 119 126
2.119526 1.260987 11.652223 162 171 178
2.162131 1.253701 11.593770 153 162 171
2.205806 1.247304 11.543386 166 175 184
2.248621 1.240664 11.490705 168 177 186
2.292119 1.234630 11.443525 170 177 185
2.334862 1.228405 11.394529 168 180 192
2.378160 1.222674 11.350016 190 182 193
2.420571 1.216682 11.303044 124 69 74
2.468740 1.213692 11.283659 137 74 82
2.524172 1.214221 11.296684 54 43 49
2.586978 1.218088 11.340521 41 44 51
2.654520 1.223870 11.402117 37 42 38
2.719726 1.228284 11.451182 90 92 81
2.785646 1.232748 11.500802 97 98 90
2.852523 1.237362 11.551906 137 140 133
2.920359 1.242117 11.604407 124 127 120
2.990813 1.247687 11.664545 137 140 131
3.060668 1.252723 11.719845 149 152 143
3.135351 1.259403 11.790504 61 64 57
3.210199 1.265821 11.858864 68 70 65
3.285135 1.271963 11.924767 86 86 78
3.379967 1.285249 12.057247 166 157 148
5.531313 1.983455 18.594360 112 100 88
5.600370 1.974267 18.522949 103 89 78
5.660975 1.962394 18.426361 104 98 86
5.719539 1.950130 18.325985 133 123 114
5.910693 1.920061 18.087032 120 112 109
5.987723 1.914677 18.050663 148 141 135
6.041961 1.902297 17.948616 138 131 125
6.108651 1.894011 17.884865 124 117 109
6.171494 1.884729 17.811680 118 109 100
6.233026 1.875250 17.736542 126 116 106
6.301709 1.868051 17.682770 124 114 104
6.364700 1.859341 17.614700 120 112 101
6.425397 1.850150 17.542000 122 114 103
6.477280 1.838681 17.447697 129 122 114
6.526225 1.826648 17.347939 133 128 124
6.562609 1.811468 17.218285 141 136 132
6.627397 1.804222 17.163513 133 128 124
6.686421 1.795578 17.095432 149 144 138
6.744866 1.786941 17.027325 151 146 140
6.801878 1.778093 16.957123 144 139 133
6.861599 1.770090 16.894852 148 143 139
6.915257 1.760711 16.819420 141 138 133
6.969053 1.751537 16.745846 144 141 136
7.024073 1.742826 16.676565 153 148 144
7.080000 1.734485 16.610714 147 142 136
7.135741 1.726241 16.545692 142 137 131
7.192533 1.718379 16.484245 126 122 113
7.238267 1.708092 16.399544 124 120 111
7.268278 1.694407 16.282242 146 142 133
7.350657 1.692782 16.280132 144 139 133
7.435325 1.691637 16.282642 123 118 112
7.487783 1.683377 16.216990 149 144 138
7.550199 1.677408 16.173235 145 140 134
7.608128 1.670555 16.120922 140 135 129
7.662343 1.663011 16.061909 144 141 136
7.717430 1.655761 16.005646 147 144 139
7.773140 1.648745 15.951561 147 142 136
7.831419 1.642354 15.903413 142 137 131
7.890646 1.636237 15.857856 142 135 127
7.945133 1.629249 15.803836 145 138 128
8.003214 1.623069 15.757536 146 137 128
8.064024 1.617499 15.717078 129 121 110
8.122657 1.611571 15.673115 128 119 110
8.182719 1.605987 15.632429 135 126 117
8.239731 1.599890 15.586710 157 148 139
8.292601 1.593091 15.534131 176 166 154
8.351851 1.587562 15.493804 196 183 166
8.405653 1.581096 15.444324 213 198 175
8.455084 1.573918 15.387857 227 213 187
8.505384 1.566992 15.333754 230 214 189
8.549706 1.559094 15.270109 234 219 190
8.606113 1.553427 15.228124 234 219 188
8.658781 1.547172 15.180351 232 219 187
8.714597 1.541532 15.138526 232 219 187
8.768390 1.535609 15.093880 230 217 185
8.818161 1.529075 15.043193 229 216 184
8.866870 1.522443 14.991471 225 211 182
8.921085 1.516800 14.949376 225 211 182
8.970304 1.510401 14.899799 224 213 185
9.017167 1.503695 14.847146 221 210 182
9.068515 1.497788 14.802274 223 209 182
9.117366 1.491549 14.754077 222 208 181
9.157186 1.483963 14.692526 223 211 185
9.203301 1.477452 14.641497 225 215 188
9.244572 1.470271 14.583766 229 217 191
9.282381 1.462648 14.521594 233 219 192
9.321928 1.455384 14.462875 234 224 197
9.357124 1.447558 14.398495 235 224 196
9.388505 1.439264 14.329381 236 222 193
9.415809 1.430478 14.255279 216 201 170
-4.888979 2.322317 19.313488 26 25 31
-4.785128 2.309164 19.215317 20 19 25
-4.689852 2.299689 19.147400 23 22 28
-4.583600 2.284811 19.034828 7 6 11
-4.495781 2.278412 18.992184 10 9 14
-4.415798 2.275727 18.980213 10 11 15
-4.334562 2.272427 18.963154 10 11 15
-4.255232 2.270076 18.953949 8 9 13
-4.187820 2.273873 18.995659 9 9 11
-4.126301 2.280992 19.064953 15 15 17
-4.052665 2.282018 19.083832 17 17 19
-3.979025 2.283189 19.103951 16 16 18
-3.883300 2.272302 19.024036 15 15 17
-3.823613 2.281421 19.110180 16 15 20
-3.751172 2.283686 19.139481 12 11 16
-3.142510 2.011224 16.894150 5 4 9
-3.045606 1.993317 16.754395 15 14 19
-2.957841 1.980453 16.656490 6 5 10
-2.870051 1.967116 16.554539 11 10 15
-2.787548 1.956738 16.477161 7 6 12
-2.708606 1.948374 16.416502 8 7 13
-2.626845 1.937799 16.337334 8 7 13
-2.547372 1.928430 16.268166 9 8 14
-2.465697 1.917129 16.182777 9 8 14
-2.387161 1.907684 16.112835 8 7 13
-2.303584 1.894043 16.007710 8 7 13
-2.225455 1.884027 15.932819 8 7 13
-2.147654 1.873842 15.856441 8 7 13
-2.070808 1.863987 15.782756 9 8 14
-1.994192 1.853875 15.706839 10 9 15
-1.921267 1.846516 15.653952 8 7 13
-1.848453 1.838933 15.599133 8 7 13
-1.774687 1.830110 15.533841 8 7 13
-1.701542 1.821437 15.469753 8 7 13
-1.628607 1.812515 15.403506 9 8 14
-1.557344 1.804842 15.347701 12 11 17
-1.486024 1.796686 15.287775 11 12 17
-1.413603 1.786806 15.213267 10 11 16
-1.341552 1.776711 15.136868 9 10 15
-1.270175 1.766742 15.061460 17 16 22
-1.200552 1.758310 14.998945 3 2 8
-1.131735 1.750358 14.940424 9 10 15
-1.064949 1.744710 14.901316 1 4 11
-0.998298 1.738891 14.860727 104 109 115
-0.933793 1.736085 14.845600 88 92 101
-0.870284 1.734915 14.844311 94 101 111
-0.806491 1.733383 14.839977 117 124 134
-0.743052 1.732656 14.842473 107 111 122
-0.679761 1.732497 14.849797 11 18 28
-0.616147 1.731975 14.854075 44 51 61
-0.552902 1.732723 14.869143 39 43 54
-0.489659 1.734128 14.889841 9 13 24
-0.426166 1.735643 14.911504 18 22 33
-0.362282 1.736823 14.930361 26 28 40
-0.298417 1.739189 14.959352 26 29 38
-0.234522 1.743169 15.002143 21 22 27
-0.170301 1.748134 15.053396 34 34 42
-0.105990 1.756824 15.136500 134 136 133
-0.040880 1.766211 15.225675 3 3 5
0.024932 1.779857 15.351351 148 148 140
0.091985 1.794978 15.489809 105 104 102
0.160458 1.811622 15.641469 142 141 137
0.567340 1.552391 13.481537 159 170 176
0.623321 1.541261 13.394086 154 167 175
0.678448 1.529795 13.303648 153 166 174
0.733550 1.520040 13.227829 145 154 159
0.787971 1.510156 13.150819 155 160 164
0.839728 1.496273 13.039257 95 100 103
0.893382 1.487599 12.972480 8 13 16
0.946948 1.479694 12.912265 4 9 12
1.000177 1.472015 12.853936 14 19 22
1.052788 1.464105 12.793548 9 14 20
1.105586 1.457137 12.741235 7 11 20
1.157811 1.449951 12.686979 0 5 11
1.209211 1.442265 12.628343 7 14 20
1.259789 1.434160 12.566010 3 8 12
1.311056 1.427420 12.515432 2 5 10
1.362540 1.421344 12.470567 5 10 16
1.412653 1.414201 12.416389 0 3 12
1.461505 1.406235 12.355012 156 163 173
1.510015 1.398425 12.294909 180 189 198
1.559044 1.391545 12.242834 0 3 13
1.607682 1.384689 12.190912 19 29 39
1.656399 1.378255 12.142604 26 39 48
1.704400 1.371548 12.091866 29 41 53
1.752097 1.364924 12.041792 41 55 68
1.799322 1.358247 11.991199 51 65 78
1.846460 1.351809 11.942646 37 47 57
1.894238 1.346114 11.900525 15 19 30
1.940620 1.339672 11.851833 24 31 41
1.985814 1.332693 11.798383 17 26 35
2.030448 1.325637 11.744195 23 32 41
2.073561 1.317896 11.683950 166 175 184
2.115539 1.309769 11.620246 164 173 182
2.157961 1.302245 11.561752 151 160 169
2.201841 1.295874 11.513323 162 171 180
2.245113 1.289384 11.463788 165 174 183
2.288534 1.283208 11.416960 166 175 180
2.331793 1.277154 11.371155 166 179 188
2.376079 1.271850 11.331901 170 180 190
2.419363 1.266186 11.289426 121 75 85
2.466399 1.262609 11.265306 179 108 112
2.519669 1.262215 11.269256 90 58 63
2.580376 1.265382 11.304655 37 31 41
2.646522 1.270925 11.361116 32 36 35
2.709347 1.274606 11.401205 19 21 16
2.772774 1.278333 11.441765 64 67 60
2.838315 1.282776 11.488747 53 55 50
2.905539 1.287704 11.540095 126 128 123
2.973749 1.292787 11.592905 149 151 146
3.044360 1.298611 11.652379 197 198 193
3.118091 1.305429 11.720779 204 205 200
3.193614 1.312646 11.792830 135 135 133
3.273405 1.321222 11.877090 220 217 212
3.360276 1.332181 11.982689 212 215 204
5.516537 2.064307 18.536591 106 92 79
5.584947 2.054729 18.464115 103 87 74
5.656467 2.046484 18.403458 103 95 82
5.695140 2.026858 18.241009 107 94 85
5.981673 1.997022 18.025322 142 135 129
6.034061 1.983667 17.918358 133 126 118
6.104842 1.976503 17.866844 142 133 124
6.168575 1.967251 17.796513 105 95 85
6.232767 1.958330 17.729065 117 105 93
6.302648 1.951320 17.678749 114 104 94
6.366893 1.942736 17.614197 115 105 93
6.427174 1.933141 17.540459 115 107 96
6.476579 1.920564 17.439732 142 135 125
6.523750 1.907617 17.335545 133 128 122
6.561018 1.892144 17.208405 140 135 131
6.624999 1.884492 17.151783 138 133 129
6.684052 1.875612 17.083984 151 148 141
6.741252 1.866391 17.013020 149 145 136
6.799335 1.857578 16.945660 156 149 141
6.859366 1.849439 16.884338 148 143 137
6.912684 1.839686 16.808289 151 146 142
6.965510 1.829986 16.732635 145 140 136
7.020662 1.821057 16.663879 149 144 140
7.076592 1.812479 16.598240 148 143 137
7.132957 1.804155 16.534828 151 146 140
7.190801 1.796332 16.475903 132 128 119
7.241258 1.786849 16.401768 127 122 116
7.249074 1.767347 16.236153 149 146 139
7.337154 1.767188 16.246881 146 143 136
7.435937 1.769458 16.279850 126 121 115
7.485772 1.760340 16.208754 151 146 140
7.547256 1.754023 16.163197 146 143 136
7.604496 1.746835 16.109619 142 139 134
7.658344 1.738999 16.050026 105 102 97
7.712725 1.731397 15.992515 66 63 58
7.767696 1.724036 15.937139 73 68 62
7.825877 1.717468 15.888989 93 86 80
7.884389 1.711058 15.842233 148 141 133
7.939051 1.703924 15.788755 146 137 128
7.997878 1.697752 15.744074 150 142 131
8.058660 1.692056 15.703739 132 122 112
8.116405 1.685812 15.658290 119 109 99
8.178055 1.680427 15.620726 130 120 110
8.234596 1.674087 15.574298 144 132 120
8.287104 1.667035 15.521223 172 159 143
8.346709 1.661453 15.481695 193 178 157
8.402959 1.655288 15.436725 197 179 155
8.453306 1.648075 15.381983 210 193 167
8.503939 1.641011 15.328548 220 200 175
8.548727 1.632950 15.265800 228 208 181
8.604767 1.627073 15.223259 235 216 186
8.657235 1.620611 15.175227 238 219 189
8.712861 1.614796 15.133163 225 206 176
8.767496 1.608869 15.089996 228 213 184
8.817821 1.602246 15.040294 232 217 188
8.867167 1.595531 14.989672 231 215 189
8.920327 1.589558 14.945915 232 217 188
8.967965 1.582704 14.893867 232 218 191
9.014054 1.575669 14.840063 230 215 186
9.065899 1.569689 14.796068 230 215 184
9.115638 1.563423 14.749342 229 214 183
9.155073 1.555528 14.687270 229 215 186
9.200178 1.548661 14.634766 229 215 188
9.241464 1.541257 14.577146 229 213 187
9.280868 1.533642 14.517467 227 210 182
9.318387 1.525823 14.455781 224 210 183
9.354660 1.517905 14.393085 230 216 187
9.388375 1.509689 14.327481 225 210 179
9.415968 1.500631 14.253845 229 213 180
-4.895076 2.409575 19.352566 14 15 19
-4.788553 2.394838 19.244774 34 33 38
-4.700921 2.388862 19.206642 30 28 33
-4.604773 2.378608 19.134415 7 5 10
-4.518639 2.373114 19.100052 8 3 9
-4.464250 2.383633 19.193363 9 7 12
-4.403449 2.391297 19.264008 6 5 10
-4.327270 2.391260 19.273262 6 5 10
-4.255600 2.393731 19.302574 6 5 10
-4.194340 2.402049 19.378654 5 3 8
-4.123066 2.405240 19.413834 4 2 5
-4.050146 2.407732 19.443481 21 19 22
-3.900310 2.411016 19.489288 35 33 38
-3.144880 2.087500 16.924274 18 17 22
-3.051751 2.071473 16.804199 19 18 23
-2.958657 2.054884 16.679497 14 13 18
-2.873079 2.042653 16.589678 5 4 9
-2.790807 2.032222 16.514244 7 6 12
-2.709483 2.022078 16.441051 8 7 13
-2.627706 2.011243 16.362238 8 7 13
-2.547221 2.000939 16.287624 8 7 13
-2.464684 1.988703 16.197392 8 7 13
-2.385141 1.978253 16.121456 8 7 13
-2.301952 1.964501 16.018831 8 7 13
-2.224113 1.954452 15.945984 8 7 13
-2.146816 1.944420 15.873209 9 8 14
-2.069886 1.934253 15.799271 9 8 14
-1.992684 1.923372 15.719501 9 8 14
-1.918779 1.914962 15.659637 9 8 14
-1.844900 1.906185 15.596750 9 8 14
-1.771140 1.897090 15.531239 9 8 14
-1.697702 1.887849 15.464476 9 8 14
-1.624951 1.878822 15.399390 9 8 14
-1.553342 1.870528 15.340192 10 9 15
-1.482331 1.862438 15.282596 11 10 16
-1.409689 1.851955 15.205525 9 8 14
-1.337139 1.840878 15.123562 10 9 15
-1.265488 1.830158 15.044415 3 2 8
-1.195945 1.821469 14.981706 3 2 8
-1.127299 1.813404 14.924017 4 5 10
-1.060503 1.807480 14.883698 5 6 11
-0.993943 1.801519 14.843043 27 30 37
-0.928880 1.797615 14.819114 108 113 119
-0.864872 1.795377 14.808751 106 110 119
-0.800996 1.793400 14.800509 31 38 46
-0.737643 1.792535 14.801356 1 5 14
-0.674376 1.792094 14.805667 6 10 19
-0.610887 1.791448 14.808326 10 14 23
-0.547732 1.791996 14.820759 26 30 39
-0.484175 1.791991 14.828699 35 39 48
-0.420665 1.792694 14.842450 35 38 47
-0.357407 1.795150 14.870583 28 31 40
-0.293743 1.797389 14.896982 30 30 38
-0.229886 1.800372 14.929523 32 31 39
-0.165855 1.804755 14.973597 19 19 27
-0.101588 1.811317 15.035615 54 55 59
-0.036933 1.821196 15.124950 75 76 78
0.028341 1.837461 15.266874 0 1 0
0.094999 1.856051 15.428078 3 3 1
0.394737 1.630501 13.611313 158 168 177
0.454069 1.627390 13.593183 150 163 171
0.509288 1.608572 13.445397 152 165 171
0.565783 1.598408 13.368924 150 161 167
0.621627 1.588159 13.291665 150 161 165
0.677158 1.578758 13.221346 159 168 173
0.731777 1.568518 13.144012 147 156 163
0.786470 1.559850 13.079618 160 168 171
0.840494 1.550865 13.012527 147 155 157
0.893921 1.541776 12.944508 135 144 143
0.946770 1.532641 12.876037 144 153 152
0.999791 1.524707 12.817459 173 181 183
1.052535 1.517064 12.761242 182 189 195
1.105095 1.509799 12.708107 186 193 201
1.156760 1.501875 12.649449 186 195 200
1.207909 1.493891 12.590226 190 199 204
1.258424 1.485711 12.529313 189 196 202
1.309290 1.478532 12.476672 188 195 201
1.360431 1.472133 12.430486 196 203 209
1.410596 1.465063 12.378656 196 203 211
1.459678 1.457299 12.320982 169 178 187
1.508088 1.449332 12.261562 186 196 205
1.556674 1.441999 12.207370 195 204 211
1.605025 1.434853 12.154685 197 206 213
1.653195 1.427921 12.103740 193 204 210
1.700365 1.420485 12.048524 187 200 208
1.747574 1.413453 11.996639 183 197 206
1.794309 1.406379 11.944341 177 190 199
1.840882 1.399509 11.893705 181 190 197
1.887890 1.393272 11.848330 174 179 185
1.933428 1.386229 11.796137 166 173 181
1.978502 1.379161 11.743685 157 166 175
2.023471 1.372317 11.693059 143 152 161
2.067527 1.365141 11.639597 189 198 207
2.110555 1.357589 11.582903 185 194 203
2.153717 1.350422 11.529398 174 183 190
2.197460 1.343888 11.481169 175 184 191
2.241467 1.337749 11.436224 175 182 190
2.285480 1.331827 11.393057 169 178 183
2.328767 1.325689 11.348027 167 178 184
2.372972 1.320267 11.308996 162 175 183
2.417390 1.315127 11.272315 182 150 161
2.464159 1.311387 11.247436 105 39 43
2.516445 1.310595 11.247486 161 106 111
2.575127 1.313004 11.274660 208 191 199
2.639138 1.317877 11.322758 221 222 224
2.700869 1.321359 11.359135 222 224 223
2.763914 1.325246 11.399005 216 218 217
2.829015 1.329858 11.445095 210 212 211
2.894974 1.334602 11.492382 205 207 204
2.963071 1.340045 11.545676 202 204 201
3.033387 1.346178 11.604929 199 200 195
3.106808 1.353344 11.673062 195 194 189
3.185829 1.362538 11.758567 194 193 188
3.265142 1.371442 11.841733 200 193 187
3.351125 1.382670 11.944838 196 199 188
3.445916 1.396951 12.074149 199 195 183
5.482989 2.137321 18.416927 138 126 110
5.562455 2.131908 18.382401 134 125 108
5.644192 2.127422 18.355774 139 130 115
5.669752 2.102369 18.153004 143 129 118
5.975809 2.079153 18.000549 147 138 131
6.028334 2.065445 17.894444 148 139 130
6.101525 2.058953 17.850258 146 137 128
6.166066 2.049728 17.782516 118 108 98
6.231649 2.041027 17.719212 129 117 105
6.301257 2.033777 17.668343 108 98 86
6.366352 2.025237 17.606297 110 100 88
6.425972 2.015165 17.530975 120 112 101
6.474439 2.001899 17.427986 144 137 127
6.518924 1.987728 17.317066 140 135 129
6.559250 1.972641 17.198086 138 133 127
6.623180 1.964786 17.141525 140 135 129
6.679060 1.954747 17.066010 149 144 138
6.737939 1.945755 16.999466 155 148 140
6.794661 1.936322 16.929031 156 149 139
6.854907 1.928038 16.868484 156 149 141
6.909272 1.918291 16.795177 148 143 137
6.963360 1.908650 16.722698 149 144 138
7.019994 1.899860 16.657543 151 146 140
7.076241 1.891121 16.592754 152 147 141
7.131666 1.882319 16.527340 150 145 139
7.192409 1.875027 16.475018 135 128 120
7.240581 1.864669 16.395908 136 131 125
7.225904 1.838810 16.181456 148 145 140
7.319518 1.840214 16.204754 148 145 140
7.428631 1.845294 16.260212 141 136 130
7.483381 1.837101 16.199726 149 145 136
7.547694 1.831311 16.160194 146 143 136
7.601478 1.823118 16.099585 143 142 137
7.654304 1.814828 16.038067 118 115 110
7.709674 1.807251 15.982722 66 61 57
7.763588 1.799455 15.925386 65 60 54
7.821328 1.792631 15.876534 66 59 51
7.880535 1.786226 15.831302 157 148 141
7.935324 1.778934 15.778225 149 140 131
7.994061 1.772599 15.733518 152 142 132
8.055090 1.766836 15.693796 138 128 116
8.113553 1.760595 15.649825 127 117 105
8.174232 1.754896 15.610587 128 116 102
8.231249 1.748501 15.565169 148 134 121
8.284926 1.741500 15.514343 178 162 146
8.345012 1.735892 15.475780 197 181 158
8.401134 1.729549 15.430675 207 190 162
8.451896 1.722216 15.376757 211 190 161
8.502780 1.715004 15.323850 216 195 166
8.547210 1.706628 15.260562 212 193 161
8.604472 1.700844 15.220196 214 194 161
8.658446 1.694496 15.174780 215 195 160
8.713545 1.688435 15.131866 212 192 159
8.767879 1.682299 15.088243 222 206 173
8.818078 1.675468 15.038379 223 208 177
8.867356 1.668551 14.987694 235 220 191
8.919967 1.662324 14.943099 231 214 184
8.967445 1.655244 14.890850 227 212 183
9.014021 1.648090 14.837881 233 218 189
9.065442 1.641878 14.793266 228 211 183
9.114662 1.635352 14.745787 234 219 190
9.154696 1.627311 14.684703 231 217 190
9.197666 1.619876 14.628973 229 215 189
9.239907 1.612410 14.572887 230 216 189
9.279815 1.604642 14.514035 229 212 184
9.316144 1.596376 14.450628 230 213 187
9.353418 1.588370 14.389492 234 217 189
9.389279 1.580234 14.327101 230 214 181
9.417443 1.570953 14.254333 231 215 182
-4.918551 2.505595 19.456547 26 27 31
-4.801066 2.485230 19.308720 23 22 27
-4.730001 2.487564 19.335354 7 5 10
-4.660907 2.491069 19.371029 5 0 4
-4.601095 2.499582 19.445309 9 3 7
-4.561139 2.518909 19.602962 8 2 6
-4.496724 2.525919 19.665859 6 1 5
-4.422094 2.527720 19.688679 7 2 6
-4.345743 2.528737 19.705490 5 3 8
-4.282073 2.537039 19.778538 6 4 7
-4.204403 2.537729 19.792908 11 6 10
-4.146538 2.550123 19.897701 7 3 4
-4.074629 2.554748 19.942577 10 5 9
-4.001479 2.558920 19.983997 6 4 7
-3.144353 2.162160 16.939999 48 47 52
-3.055681 2.148605 16.842815 21 20 25
-2.964309 2.132755 16.727757 40 39 44
-2.878102 2.119863 16.635538 15 14 19
-2.796275 2.109578 16.563465 8 7 12
-2.713013 2.097894 16.480480 8 7 13
-2.629844 2.085837 16.394524 8 7 13
-2.548535 2.074712 16.315731 8 7 13
-2.464294 2.060873 16.215786 9 8 14
-2.383811 2.049427 16.134367 8 7 13
-2.300435 2.035130 16.030699 8 7 13
-2.222565 2.024802 15.957832 9 8 14
-2.145239 2.014491 15.885033 9 8 14
-2.068795 2.004498 15.814655 9 8 14
-1.991395 1.993164 15.733763 9 8 14
-1.916989 1.984099 15.670499 8 7 13
-1.842802 1.974811 15.605445 9 8 14
-1.768934 1.965378 15.539205 9 8 14
-1.695414 1.955810 15.471861 8 7 13
-1.622491 1.946364 15.405408 8 7 13
-1.550539 1.937471 15.343227 8 7 13
-1.479816 1.929498 15.288191 10 9 15
-1.407276 1.918839 15.212088 12 11 17
-1.333994 1.906510 15.122844 5 4 10
-1.261787 1.894700 15.037587 5 4 10
-1.192006 1.885370 14.971697 12 11 17
-1.123404 1.877060 14.913756 16 15 21
-1.056314 1.870451 14.869097 4 5 10
-0.989900 1.864459 14.829260 15 16 21
-0.924598 1.859951 14.801044 5 8 15
-0.860080 1.856607 14.781957 17 20 27
-0.796494 1.854958 14.776184 65 68 75
-0.733122 1.853859 14.774746 72 75 82
-0.669790 1.853047 14.775576 31 34 39
-0.606470 1.852528 14.778726 16 19 24
-0.543348 1.852896 14.788876 15 18 25
-0.479776 1.852475 14.792827 11 14 21
-0.416313 1.852880 14.803319 9 9 17
-0.353354 1.855976 14.835051 11 12 17
-0.289947 1.858799 14.864674 12 13 18
-0.226213 1.861842 14.896085 17 16 24
-0.162184 1.865490 14.932313 21 20 28
-0.097827 1.870028 14.975640 11 11 19
-0.033387 1.879737 15.059912 14 15 17
0.031610 1.896677 15.201526 101 103 102
0.278604 1.698876 13.663301 157 167 176
0.337432 1.690598 13.604484 156 166 175
0.395229 1.679003 13.519276 162 172 181
0.452382 1.667658 13.435982 163 174 180
0.508875 1.656397 13.353271 154 165 171
0.565443 1.647764 13.291385 152 161 166
0.621562 1.639241 13.230322 126 134 137
0.677192 1.630691 13.168983 154 159 162
0.732306 1.622056 13.106911 142 151 156
0.786908 1.613374 13.044412 145 154 159
0.840228 1.603030 12.968608 144 154 155
0.893447 1.593709 12.900888 144 154 153
0.946576 1.585224 12.839775 151 161 162
0.999666 1.577506 12.784738 156 166 168
1.052064 1.569369 12.726300 158 167 172
1.104286 1.561668 12.671297 159 170 174
1.155705 1.553441 12.612031 159 170 174
1.206789 1.545404 12.554240 163 173 175
1.257310 1.537237 12.495355 138 148 150
1.307868 1.529700 12.441453 121 130 135
1.358580 1.522843 12.392960 154 163 168
1.408671 1.515713 12.342241 159 168 175
1.457587 1.507752 12.284795 166 177 183
1.505965 1.499716 12.226696 162 173 179
1.554393 1.492200 12.172724 168 177 184
1.602500 1.484792 12.119571 172 179 187
1.650264 1.477464 12.067007 175 182 190
1.696949 1.469553 12.009712 170 179 188
1.743915 1.462289 11.957566 163 173 183
1.790517 1.455073 11.905758 162 172 182
1.836839 1.447971 11.854817 164 171 179
1.883087 1.441131 11.805954 171 174 181
1.928256 1.433775 11.752871 171 178 186
1.972977 1.426410 11.699674 176 183 191
2.018543 1.419960 11.653811 174 181 189
2.063086 1.413056 11.604240 163 172 179
2.106753 1.405836 11.552065 162 171 178
2.150663 1.399059 11.503421 158 167 174
2.194977 1.392794 11.458884 163 170 178
2.239308 1.386763 11.416205 163 170 178
2.283365 1.380773 11.373818 164 171 179
2.327068 1.374774 11.331321 160 171 173
2.371414 1.369345 11.293404 162 166 175
2.415803 1.364107 11.257010 181 169 179
2.461954 1.359997 11.229752 80 29 34
2.513584 1.358946 11.227345 94 32 35
2.571145 1.360992 11.250149 61 35 38
2.633301 1.365246 11.290961 172 171 176
2.694726 1.368874 11.326740 173 174 179
2.758192 1.373287 11.368968 174 175 177
2.822703 1.377954 11.413321 176 178 177
2.887821 1.382649 11.457970 176 178 175
2.956918 1.388941 11.515726 178 178 176
3.027353 1.395530 11.575983 179 180 175
3.100132 1.402848 11.642286 182 181 176
3.177724 1.411940 11.723189 187 187 177
3.260844 1.423016 11.820432 198 189 182
3.341645 1.432636 11.905890 198 196 184
3.438758 1.448639 12.043759 194 192 179
5.451646 2.210037 18.304657 126 116 104
5.540947 2.208656 18.303963 134 131 116
5.627567 2.206177 18.294254 134 122 110
5.657326 2.181951 18.105804 138 125 116
5.862640 2.155534 17.920124 138 134 125
5.972261 2.161841 17.982643 141 132 123
6.026227 2.148236 17.881077 144 134 124
6.098279 2.141234 17.833885 136 126 117
6.162577 2.131702 17.765766 127 117 107
6.228003 2.122746 17.702332 126 116 104
6.296308 2.114921 17.648190 120 110 100
6.360801 2.105991 17.584862 119 111 100
6.418906 2.095175 17.505867 134 126 115
6.466750 2.081325 17.401657 132 125 115
6.505320 2.064878 17.275822 133 126 118
6.544609 2.049031 17.154819 137 132 126
6.614907 2.042982 17.114975 137 133 124
6.670479 2.032597 17.039097 139 135 126
6.730340 2.023685 16.975380 146 138 127
6.784257 2.013196 16.898495 154 146 135
6.843515 2.004450 16.836018 139 130 121
6.899061 1.994802 16.765972 121 114 104
6.957016 1.986005 16.702953 143 139 130
7.005056 1.974613 16.618233 146 142 133
7.063710 1.966344 16.559467 155 151 142
7.126192 1.959247 16.510424 151 147 138
7.193437 1.953528 16.472839 134 130 121
7.242395 1.943059 16.395542 148 145 138
7.424953 1.921825 16.248302 141 136 130
7.483304 1.914323 16.195572 155 148 140
7.546883 1.908229 16.154604 154 150 141
7.601945 1.900125 16.096729 143 143 135
7.653918 1.891395 16.033550 124 121 116
7.709997 1.883787 15.979722 77 72 68
7.763912 1.875776 15.922465 66 59 53
7.821961 1.868854 15.874293 58 51 43
7.881991 1.862484 15.830729 160 151 142
7.937347 1.855125 15.778789 152 143 134
7.995035 1.848396 15.732112 152 144 133
8.055547 1.842387 15.691463 141 131 121
8.113657 1.835919 15.646894 130 121 106
8.172308 1.829649 15.603968 136 124 108
8.229166 1.823068 15.558361 160 147 131
8.282329 1.815776 15.506706 186 171 152
8.342222 1.810010 15.467907 194 178 152
8.398330 1.803514 15.422887 207 188 158
8.450057 1.796186 15.370782 216 195 164
8.501876 1.788973 15.319597 221 198 166
8.547003 1.780490 15.257591 220 199 168
8.605020 1.774724 15.218575 219 196 162
8.659620 1.768339 15.174268 207 183 147
8.715322 1.762247 15.132404 218 195 161
8.768739 1.755776 15.087281 221 202 170
8.818542 1.748682 15.036808 211 196 167
8.867438 1.741502 14.985546 231 216 187
8.919577 1.735026 14.940236 235 219 186
8.966155 1.727580 14.886602 231 214 186
9.013440 1.720358 14.834829 235 218 190
9.064439 1.713910 14.789607 234 217 189
9.112673 1.707030 14.740648 234 219 190
9.155898 1.699325 14.684581 233 219 192
9.199261 1.691740 14.629485 230 218 192
9.242916 1.684301 14.575577 233 219 193
9.281463 1.676054 14.514679 230 214 188
9.317956 1.667554 14.451542 231 214 188
9.353728 1.659038 14.388200 234 217 189
9.389270 1.650592 14.325380 233 214 182
9.420341 1.641494 14.256894 231 212 180
-4.942792 2.602916 19.563564 14 12 15
-4.833275 2.586224 19.447491 12 10 13
-4.775547 2.595941 19.527760 5 3 6
-4.727008 2.610901 19.647121 7 2 6
-4.673935 2.624020 19.752895 9 5 6
-4.618887 2.636601 19.854755 10 6 7
-4.541985 2.637619 19.870571 10 6 7
-4.466439 2.639540 19.893147 8 4 5
-4.395359 2.644194 19.936131 5 3 4
-4.323447 2.648640 19.977608 11 7 8
-4.242268 2.647858 19.980125 9 5 6
-4.176234 2.656322 20.051689 12 6 6
-4.087926 2.651499 20.024078 14 8 8
-3.990225 2.640705 19.951828 15 11 12
-3.142562 2.236096 16.949444 24 23 28
-3.055688 2.223395 16.861492 25 24 29
-2.967639 2.209430 16.764015 23 22 27
-2.882475 2.197010 16.678036 31 30 35
-2.798822 2.185237 16.596840 7 6 11
-2.717211 2.174553 16.523746 8 7 12
-2.633661 2.161989 16.436504 9 8 14
-2.551384 2.149924 16.352932 9 8 14
-2.466321 2.135130 16.248810 9 8 14
-2.384714 2.122539 16.161144 9 8 14
-2.299999 2.106763 16.049488 9 8 14
-2.220848 2.095092 15.968597 9 8 14
-2.143301 2.084327 15.894461 9 8 14
-2.067080 2.074288 15.825740 7 6 12
-1.989773 2.062749 15.745670 9 8 14
-1.914946 2.053065 15.679512 10 9 15
-1.840321 2.043108 15.611243 9 8 14
-1.766491 2.033467 15.545313 9 8 14
-1.693427 2.024144 15.481729 9 8 14
-1.620674 2.014661 15.416891 9 8 14
-1.548585 2.005409 15.353745 9 8 14
-1.477857 1.997264 15.298913 13 12 17
-1.405295 1.986309 15.222803 6 5 10
-1.331147 1.972504 15.125094 15 14 19
-1.258709 1.960012 15.037239 5 4 9
-1.188508 1.949788 14.966468 40 39 44
-1.120263 1.941742 14.912135 73 72 77
-1.052961 1.934599 14.864598 0 0 4
-0.986258 1.927921 14.820555 9 8 14
-0.920979 1.923278 14.791909 10 9 15
-0.856502 1.919873 14.772639 12 11 17
-0.792676 1.917650 14.762327 15 14 22
-0.729018 1.915808 14.754913 6 5 13
-0.665697 1.914845 14.754172 4 3 11
-0.602445 1.914293 14.756571 8 9 14
-0.539371 1.914593 14.765455 5 6 11
-0.475863 1.914085 14.768213 6 7 12
-0.412562 1.914745 14.779872 6 5 11
-0.349652 1.917798 14.809775 6 5 11
-0.286300 1.920516 14.837158 6 5 11
-0.222485 1.922594 14.859706 10 9 15
-0.158529 1.925810 14.890959 7 6 14
-0.094438 1.931292 14.939534 6 5 11
-0.030174 1.941696 15.025739 8 7 13
0.034729 1.958255 15.159024 6 5 10
0.221941 1.768265 13.727172 151 162 168
0.280899 1.756529 13.643677 155 164 171
0.338952 1.743106 13.547205 164 173 180
0.396701 1.732585 13.472862 163 172 179
0.454011 1.722828 13.404317 161 170 177
0.510486 1.711867 13.326484 153 160 166
0.566623 1.701963 13.256695 148 156 159
0.622672 1.693563 13.198381 140 148 150
0.678066 1.684583 13.135568 144 152 154
0.732904 1.675449 13.071519 143 150 156
0.786882 1.665481 13.001013 142 149 155
0.840249 1.655428 12.929789 142 150 152
0.893230 1.645768 12.861535 143 151 153
0.946226 1.637181 12.801472 148 156 159
0.999567 1.630046 12.752540 147 156 161
1.051980 1.621991 12.696486 148 158 160
1.104104 1.614175 12.642220 149 159 161
1.155180 1.605440 12.580835 154 164 166
1.205959 1.596984 12.521545 154 164 166
1.256584 1.588959 12.465527 39 47 50
1.307081 1.581338 12.412587 12 20 23
1.357567 1.574213 12.363432 133 140 146
1.407599 1.567005 12.313599 135 142 148
1.456441 1.558909 12.256852 160 167 173
1.504942 1.550940 12.201039 160 169 176
1.553393 1.543382 12.148368 162 172 181
1.601316 1.535719 12.094839 162 169 177
1.648761 1.528012 12.040922 167 172 178
1.695297 1.519871 11.983591 170 175 181
1.742043 1.512336 11.930918 159 166 174
1.789043 1.505387 11.882744 157 166 175
1.835570 1.498364 11.833951 158 165 175
1.881846 1.491454 11.786005 176 180 189
1.926874 1.483869 11.732764 0 1 7
1.971185 1.476071 11.677822 2 7 13
2.016441 1.469307 11.630883 27 34 40
2.060920 1.462257 11.581671 153 160 166
2.105005 1.455212 11.532460 147 154 160
2.149112 1.448456 11.485460 156 163 169
2.193362 1.442048 11.441133 154 161 167
2.237138 1.435564 11.396171 153 160 166
2.281157 1.429461 11.354154 152 159 165
2.325125 1.423534 11.313466 153 163 165
2.369456 1.418017 11.275959 157 160 167
2.414631 1.413168 11.243632 152 157 163
2.460984 1.409130 11.217633 102 70 75
2.511805 1.407694 11.211977 102 41 48
2.568572 1.409502 11.231722 54 22 25
2.629552 1.413415 11.267987 178 173 179
2.691203 1.417439 11.305174 166 167 171
2.754567 1.422104 11.347434 168 169 171
2.819016 1.427052 11.391969 169 171 168
2.884355 1.432169 11.437894 170 172 167
2.953424 1.438820 11.495925 173 173 171
3.024923 1.446297 11.560521 174 175 170
3.098323 1.454306 11.629379 177 176 171
3.174647 1.463284 11.705942 183 183 173
3.257440 1.474766 11.802314 196 190 178
3.337158 1.484410 11.884318 192 188 176
3.439803 1.503566 12.041394 190 188 175
5.405798 2.275579 18.144680 116 106 97
5.509660 2.280599 18.193886 112 105 95
5.602273 2.280805 18.205139 118 108 98
5.636065 2.257536 18.030907 137 129 118
5.864722 2.239733 17.918800 130 126 115
5.965872 2.243266 17.956367 124 114 104
6.023811 2.230752 17.866825 122 112 102
6.092735 2.222495 17.810951 115 105 96
6.157123 2.212783 17.743488 108 98 88
6.224963 2.204480 17.687153 101 91 79
6.289523 2.195203 17.623024 107 99 88
6.354609 2.186287 17.561718 108 100 89
6.413106 2.175333 17.484154 108 102 90
6.457952 2.160096 17.372433 111 104 94
6.489903 2.141003 17.229916 121 114 106
6.532421 2.125754 17.117863 134 127 119
6.611987 2.122583 17.101959 131 124 116
6.668381 2.112178 17.028362 125 118 108
6.729112 2.103312 16.966980 134 127 111
6.783946 2.092811 16.892490 140 131 116
6.842039 2.083489 16.827351 140 132 119
6.894387 2.072634 16.749893 121 113 102
6.936299 2.058933 16.649609 109 102 92
6.983813 2.047127 16.564384 101 94 84
7.124127 2.036937 16.501205 124 120 109
7.180112 2.027987 16.438683 138 134 125
7.432549 2.001193 16.260380 144 141 136
7.484591 1.991830 16.194292 153 146 138
7.550779 1.986279 16.158802 148 144 133
7.605022 1.977740 16.099241 145 142 135
7.655411 1.968361 16.032858 131 126 122
7.709947 1.960169 15.975976 83 76 70
7.766335 1.952557 15.923721 86 79 73
7.822214 1.944932 15.871305 74 67 59
7.880773 1.938061 15.824942 161 154 144
7.937131 1.930757 15.775038 153 144 135
7.994632 1.923824 15.728080 155 147 136
8.054388 1.917509 15.686082 146 138 127
8.113015 1.911011 15.642570 134 125 108
8.171780 1.904625 15.599932 143 130 113
8.228120 1.897771 15.553455 159 143 127
8.281353 1.890309 15.502013 178 161 141
8.342137 1.884618 15.464892 196 179 151
8.398160 1.877947 15.419787 212 191 160
8.449376 1.870317 15.366848 218 195 163
8.501657 1.863016 15.316543 212 188 154
8.547894 1.854526 15.256516 220 195 165
8.605008 1.848441 15.216000 210 183 153
8.658912 1.841756 15.170568 212 183 149
8.715398 1.835685 15.130088 217 191 158
8.768634 1.829017 15.084719 224 203 172
8.820247 1.822102 15.037283 224 209 180
8.867898 1.814477 14.984015 221 204 176
8.919934 1.807818 14.938586 230 209 180
8.964828 1.799836 14.882298 237 218 188
9.010751 1.792156 14.828430 240 221 191
9.060789 1.785365 14.781780 237 216 187
9.108659 1.778240 14.732354 236 219 189
9.155134 1.770937 14.681418 236 221 192
9.198707 1.763178 14.626701 234 220 193
9.241460 1.755364 14.571474 234 220 193
9.280489 1.746962 14.511370 234 218 192
9.318841 1.738545 14.451070 233 216 188
9.355610 1.729948 14.389239 235 218 188
9.390166 1.721065 14.324991 233 214 182
9.423293 1.712043 14.259535 230 211 178
-4.912875 2.673047 19.468349 35 30 34
-4.806277 2.657219 19.361706 33 28 32
-4.741561 2.663426 19.413658 25 23 24
-3.143126 2.311721 16.970684 10 10 12
-3.048662 2.293366 16.844242 26 25 30
-2.968447 2.284596 16.787163 10 9 14
-2.886997 2.274636 16.721416 19 18 23
-2.802773 2.262240 16.637968 6 5 10
-2.720899 2.251193 16.564251 7 6 11
-2.636915 2.238064 16.475365 7 6 11
-2.552726 2.224236 16.381350 8 7 13
-2.467277 2.208781 16.275442 8 7 13
-2.386371 2.196520 16.192669 9 8 14
-2.300561 2.179424 16.074690 9 8 14
-2.219892 2.166144 15.984381 10 9 15
-2.141945 2.154765 15.907834 11 10 16
-2.065480 2.144268 15.837658 9 8 14
-1.987962 2.132236 15.756257 9 8 14
-1.912488 2.121670 15.685472 8 7 13
-1.838152 2.111760 15.619427 9 8 14
-1.764248 2.101805 15.553004 9 8 14
-1.691889 2.093052 15.495305 9 8 14
-1.619815 2.084163 15.436569 9 8 14
-1.547446 2.074412 15.371507 11 10 16
-1.476379 2.065713 15.314087 10 9 14
-1.403564 2.054185 15.235954 8 7 12
-1.327323 2.037155 15.117547 0 0 4
-1.254863 2.024195 15.028819 104 103 108
-1.184554 2.013444 14.956179 2 1 6
-1.116531 2.005449 14.903662 36 35 40
-1.049143 1.997901 14.854376 129 128 133
-0.982401 1.990892 14.809012 6 5 10
-0.917328 1.986429 14.782273 9 7 12
-0.852784 1.982741 14.761201 8 5 12
-0.789294 1.981106 14.755177 6 3 10
-0.725604 1.979109 14.746498 10 9 17
-0.662084 1.977584 14.741288 11 10 18
-0.598658 1.976448 14.738942 8 7 15
-0.535541 1.976455 14.744999 7 6 12
-0.472117 1.975958 14.747364 7 6 12
-0.408851 1.976479 14.757228 7 6 12
-0.345991 1.979489 14.785413 11 8 15
-0.282689 1.982074 14.810510 7 4 11
-0.218642 1.982228 14.817736 8 7 12
-0.154960 1.986221 14.853257 6 6 14
-0.091182 1.993318 14.911687 6 5 10
-0.026918 2.002501 14.985557 7 4 15
0.038046 2.013720 15.074511 10 8 11
0.164768 1.836159 13.776455 26 29 34
0.223864 1.818539 13.652064 30 37 45
0.282697 1.808982 13.587148 83 90 98
0.340862 1.798196 13.513097 109 116 122
0.398438 1.787425 13.439101 63 70 76
0.455474 1.776921 13.367020 115 120 124
0.511861 1.766106 13.292591 154 159 163
0.568113 1.757022 13.230914 147 155 158
0.623813 1.747706 13.167475 136 146 148
0.679294 1.739227 13.110192 130 139 144
0.734236 1.730490 13.050955 137 144 150
0.787911 1.719788 12.977097 138 143 147
0.840952 1.709018 12.902672 139 144 147
0.894197 1.699948 12.840819 142 147 150
0.947380 1.691718 12.785151 140 145 149
1.000080 1.683402 12.728805 143 150 158
1.052292 1.675010 12.671857 144 152 155
1.103969 1.666483 12.613853 143 153 154
1.154945 1.657588 12.553071 145 153 155
1.205552 1.648870 12.493559 144 152 154
1.255694 1.640169 12.434131 150 155 159
1.306125 1.632479 12.382186 154 159 163
1.356392 1.625096 12.332496 53 58 62
1.406122 1.617535 12.281439 127 132 138
1.455436 1.609958 12.230220 153 158 164
1.504112 1.602124 12.177048 157 162 168
1.552203 1.594121 12.122575 153 162 167
1.599972 1.586237 12.068950 152 161 166
1.647515 1.578557 12.016806 156 161 165
1.693977 1.570247 11.959911 160 163 168
1.740488 1.562412 11.906522 159 164 168
1.787380 1.555302 11.858527 154 161 167
1.834228 1.548484 11.812676 152 161 168
1.880846 1.541776 11.767616 148 157 162
1.925195 1.533517 11.710896 152 157 160
1.970128 1.526089 11.660361 131 135 138
2.015165 1.519055 11.612746 153 158 161
2.058977 1.511395 11.560396 153 158 162
2.102288 1.503686 11.507632 135 143 146
2.145575 1.496268 11.457020 147 154 160
2.189275 1.489420 11.410651 145 152 158
2.233122 1.482923 11.366878 145 152 158
2.277248 1.476836 11.326170 146 155 160
2.321111 1.470788 11.285712 149 154 160
2.365623 1.465341 11.249763 146 153 163
2.411805 1.461078 11.222700 143 154 160
2.458890 1.457463 11.200500 152 135 141
2.509085 1.455733 11.192514 80 24 33
2.565564 1.457572 11.211458 44 12 15
2.626572 1.461775 11.248271 178 172 176
2.688242 1.466088 11.285954 161 163 162
2.751927 1.471222 11.329898 163 165 162
2.816749 1.476670 11.376261 165 167 162
2.882846 1.482482 11.425431 167 169 164
2.951157 1.489108 11.480816 169 169 167
3.022795 1.497047 11.546210 172 172 170
3.097793 1.506240 11.621174 176 175 170
3.172789 1.515022 11.693101 182 182 172
3.254010 1.526312 11.784128 190 188 175
3.341435 1.539964 11.893179 190 188 173
3.437861 1.557108 12.028846 191 187 175
5.361080 2.340042 17.988586 157 144 138
5.471321 2.348444 18.061062 153 142 136
5.572917 2.352840 18.103161 144 134 125
5.612988 2.331618 17.950390 129 122 112
5.864496 2.322979 17.910572 101 94 84
5.958212 2.323913 17.926373 107 97 85
6.022097 2.313365 17.854626 108 98 88
6.088807 2.304107 17.792660 107 97 88
6.148369 2.292397 17.711926 109 100 91
6.214473 2.283326 17.651283 87 79 66
6.275580 2.272642 17.578262 103 95 84
6.340219 2.263429 17.516438 87 81 69
6.396912 2.251629 17.434761 97 91 79
6.444579 2.236980 17.331211 90 83 73
6.474837 2.216766 17.184948 72 65 57
6.522382 2.202802 17.086433 129 122 112
6.610969 2.202652 17.093758 113 104 95
6.668109 2.192216 17.022186 110 102 91
6.729230 2.183257 16.961899 126 117 102
6.782916 2.172108 16.884747 120 111 94
6.838806 2.161864 16.814480 133 124 109
6.888306 2.149844 16.730503 130 122 111
6.934599 2.137085 16.640760 137 131 119
7.155922 2.098938 16.380344 143 139 130
