6.158679 2.273395 5.434395 45 45 47
6.169309 2.270806 5.407907 38 38 40
6.181726 2.268829 5.382202 40 39 44
6.193743 2.266709 5.356292 36 36 38
6.204362 2.264106 5.329751 32 32 34
6.216519 2.262025 5.303857 44 44 46
6.227490 2.259536 5.277435 36 35 40
6.236364 2.256335 5.250124 43 42 47
6.245862 2.253346 5.223079 38 37 42
6.255764 2.250494 5.196200 29 28 33
6.264807 2.247353 5.168974 38 38 40
6.273494 2.244094 5.141614 34 34 36
6.283601 2.241311 5.114819 29 29 31
6.292199 2.238025 5.087437 36 36 38
6.299051 2.234164 5.059403 32 32 34
6.310217 2.231732 5.033016 37 37 39
6.321302 2.229270 5.006585 39 39 41
6.329389 2.225823 4.979044 37 37 39
6.337147 2.222272 4.951402 37 37 39
6.346282 2.219173 4.924268 38 38 38
6.355787 2.216195 4.897268 44 44 44
6.366685 2.213668 4.870749 41 41 41
6.379595 2.211788 4.844900 43 41 42
6.392269 2.209825 4.818939 36 34 35
6.401848 2.206864 4.791930 38 38 38
6.410655 2.203656 4.764671 36 36 36
6.421630 2.201141 4.738113 54 54 54
6.433469 2.198897 4.711813 46 46 46
6.444170 2.196289 4.685139 65 63 64
6.455258 2.193801 4.658573 72 70 71
6.467407 2.191644 4.632310 69 69 69
6.477715 2.188905 4.605482 71 71 71
6.489323 2.186571 4.579023 66 66 66
6.499866 2.183901 4.552243 66 66 66
6.514473 2.182492 4.526588 42 42 42
6.526860 2.180386 4.500277 43 43 45
6.536475 2.177419 4.473193 41 41 43
6.545073 2.174140 4.445841 47 47 49
6.555694 2.171483 4.419025 38 39 41
6.567001 2.169034 4.392375 44 45 47
6.579732 2.167016 4.366065 43 44 46
6.590621 2.164432 4.339274 38 38 40
6.600233 2.161460 4.312166 40 40 42
6.610518 2.158691 4.285217 39 40 42
6.618957 2.155365 4.257837 37 38 42
6.626816 2.151868 4.230339 40 41 45
6.633906 2.148145 4.202687 40 40 42
6.639100 2.143861 4.174650 40 40 42
6.646820 2.140336 4.147190 40 40 42
6.658403 2.137959 4.120548 40 40 42
6.669309 2.135379 4.093752 34 34 36
6.679606 2.132617 4.066825 43 44 46
6.690390 2.129997 4.039986 44 45 47
6.700587 2.127204 4.013026 43 44 46
6.710786 2.124410 3.986062 34 35 37
6.722941 2.122183 3.959445 43 44 46
6.732538 2.119211 3.932357 46 47 49
6.743185 2.116543 3.905450 39 40 42
6.753170 2.113682 3.878424 34 35 37
6.763168 2.110824 3.851398 35 36 38
6.771156 2.107391 3.824055 37 37 39
6.782070 2.104795 3.797172 40 40 42
6.793093 2.102229 3.770294 44 45 47
6.803000 2.099343 3.743246 43 43 45
6.813749 2.096696 3.716311 47 47 49
6.823015 2.093628 3.689169 35 35 37
6.834341 2.091140 3.662298 43 43 45
6.845150 2.088504 3.635348 36 36 38
6.855203 2.085655 3.608297 37 37 39
6.865904 2.082986 3.581318 44 45 47
6.878366 2.080803 3.554528 44 45 47
6.889704 2.078305 3.527594 39 40 42
6.900050 2.075531 3.500542 38 39 41
6.912669 2.073380 3.473710 45 46 48
6.923761 2.070807 3.446709 39 39 41
6.932318 2.067538 3.419466 45 45 47
6.939614 2.063930 3.392126 36 36 38
6.946418 2.060192 3.364767 44 44 46
6.953877 2.056636 3.337483 53 51 54
6.962765 2.053469 3.310323 47 47 49
6.967098 2.049080 3.282856 41 42 44
6.967253 2.043582 3.255166 39 37 38
6.961617 2.036555 3.227208 18 12 12
6.956851 2.029786 3.199428 19 10 11
6.971818 2.028273 3.172793 38 34 33
6.992202 2.028181 3.146372 39 39 39
7.003888 2.025781 3.119483 44 45 47
7.016582 2.023642 3.092616 45 46 48
7.027796 2.021111 3.065673 47 48 50
7.043527 2.019756 3.038857 45 46 48
7.060464 2.018705 3.012023 40 41 43
7.064123 2.014198 2.984828 40 41 43
7.074625 2.011470 2.957810 40 40 42
7.083193 2.008243 2.930757 42 42 44
7.093875 2.005561 2.903735 44 45 47
7.102156 2.002262 2.876691 37 38 40
7.111573 1.999256 2.849660 38 39 41
7.120206 1.996050 2.822633 35 36 38
7.133818 1.994108 2.795585 42 43 45
7.147802 1.992255 2.768503 34 35 37
7.162639 1.990610 2.741374 33 34 36
7.172644 1.987742 2.714290 38 38 40
7.176456 1.983324 2.687340 39 40 42
7.185112 1.980124 2.660311 41 42 44
7.195564 1.977373 2.633237 34 34 36
7.207368 1.974955 2.606112 41 41 43
7.215237 1.971561 2.579118 39 39 41
7.224543 1.968525 2.552079 36 36 38
7.235974 1.966011 2.524946 40 41 43
7.254976 1.965348 2.497425 35 36 40
7.259768 1.961203 2.470590 34 35 37
7.269175 1.958187 2.443530 33 34 36
7.278700 1.955202 2.416464 40 40 42
7.287261 1.951983 2.389462 43 43 45
7.296435 1.948913 2.362428 35 35 37
7.303022 1.945224 2.335585 36 36 38
7.310180 1.941675 2.308723 37 37 39
7.315124 1.937602 2.282058 44 44 44
7.331202 1.936185 2.254492 63 61 62
7.342413 1.933605 2.227305 73 71 72
7.355586 1.931486 2.199928 72 70 71
7.370098 1.929677 2.172395 67 65 66
5.346304 2.472564 7.331466 115 111 112
5.339667 2.462579 7.290427 116 112 111
5.357344 2.463360 7.271594 78 77 75
5.370326 2.462055 7.248434 48 47 45
5.379300 2.458984 7.221658 79 78 76
5.388047 2.455815 7.194688 52 51 49
5.401546 2.454717 7.171889 43 42 40
5.409674 2.451277 7.144369 44 42 43
5.422080 2.449690 7.120552 42 41 39
5.435628 2.448588 7.097672 50 49 47
5.443522 2.445045 7.069941 55 54 52
5.450408 2.441074 7.041384 52 51 49
5.459346 2.437987 7.014574 53 52 50
5.472158 2.436550 6.990976 47 46 44
5.483908 2.434653 6.966461 53 52 50
5.494215 2.432140 6.940742 73 72 70
5.504480 2.429606 6.914976 112 108 105
5.515388 2.427341 6.889715 129 125 122
5.528146 2.425846 6.865902 139 135 132
5.552993 2.429389 6.851560 140 136 133
5.566371 2.428118 6.828063 135 131 128
5.579000 2.426527 6.803937 124 121 116
5.589566 2.424075 6.778186 144 141 136
5.600577 2.421803 6.752761 143 140 135
5.607347 2.417785 6.724117 134 133 129
5.616513 2.414756 6.697302 137 136 132
5.620156 2.409473 6.666399 131 130 126
5.630386 2.406886 6.640409 130 129 125
5.642765 2.405168 6.615975 57 56 52
5.648109 2.400599 6.586428 117 116 112
5.656206 2.397150 6.558903 123 119 116
5.668015 2.395195 6.534028 45 41 38
5.675404 2.391466 6.506018 61 57 56
5.689646 2.390476 6.482805 24 23 21
5.701477 2.388515 6.457870 35 33 34
5.710854 2.385575 6.431228 27 25 26
5.715271 2.380676 6.401229 23 21 22
5.727688 2.378941 6.376662 20 18 19
5.735351 2.375332 6.348898 27 25 26
5.743595 2.371954 6.321540 70 68 69
5.748903 2.367434 6.292282 119 115 114
5.761879 2.365908 6.268031 131 127 126
5.771535 2.363086 6.241612 119 115 114
5.783994 2.361346 6.216969 101 97 94
5.799211 2.360662 6.194021 96 92 89
5.806704 2.356997 6.166202 104 100 97
5.810806 2.352040 6.136319 119 118 114
5.815702 2.347398 6.106985 130 129 125
5.822533 2.343503 6.078876 128 127 123
5.832017 2.340621 6.052383 115 114 110
5.837234 2.336126 6.023366 129 128 124
5.845360 2.332738 5.996105 129 128 124
5.850955 2.328402 5.967391 140 139 135
5.857780 2.324535 5.939429 136 135 131
5.870533 2.322889 5.914867 141 140 136
5.883371 2.321266 5.890315 123 122 118
5.893496 2.318629 5.864213 82 81 79
5.904724 2.316398 5.838711 77 76 74
5.918530 2.315113 5.814593 68 67 65
5.929927 2.312933 5.789128 88 86 87
5.938453 2.309697 5.762110 80 78 79
5.949613 2.307425 5.736492 78 76 77
5.959589 2.304718 5.710237 64 62 65
5.965621 2.300580 5.681942 71 69 72
5.974516 2.297484 5.655147 64 64 66
5.986217 2.295402 5.629776 52 52 54
5.996864 2.292936 5.603854 52 52 54
6.007002 2.290285 5.577667 51 51 53
6.018762 2.288212 5.552265 49 49 51
6.029949 2.285930 5.526561 49 49 51
6.041884 2.283909 5.501196 46 46 48
6.051356 2.281013 5.474643 39 39 41
6.060364 2.277951 5.447874 41 41 43
6.071453 2.275623 5.422069 36 36 38
6.081239 2.272835 5.395654 42 42 44
6.091518 2.270219 5.369457 42 42 44
6.104167 2.268426 5.344304 45 44 49
6.116812 2.266625 5.319115 36 35 40
6.128075 2.264338 5.293294 40 40 42
6.140651 2.262501 5.268016 32 32 34
6.151990 2.260232 5.242183 40 39 44
6.161146 2.257211 5.215421 36 35 40
6.169840 2.254033 5.188473 38 38 40
6.179284 2.251112 5.161838 38 38 40
6.188671 2.248172 5.135181 39 39 41
6.197751 2.245129 5.108405 49 47 50
6.208115 2.242519 5.082135 31 29 32
6.216530 2.239252 5.055106 35 33 36
6.222125 2.235042 5.027017 41 41 43
6.232934 2.232584 5.000923 36 36 38
6.243991 2.230205 4.974907 40 40 42
6.252457 2.226962 4.947931 43 41 44
6.260295 2.223513 4.920742 44 42 43
6.268756 2.220274 4.893789 33 33 33
6.277572 2.217154 4.866972 38 38 38
6.286964 2.214224 4.840361 49 49 49
6.298758 2.212080 4.814563 64 62 63
6.310419 2.209888 4.788698 72 70 71
6.320381 2.207139 4.762254 71 71 71
6.329084 2.203983 4.735399 77 77 77
6.340079 2.201567 4.709281 40 40 40
6.352202 2.199512 4.683502 51 51 51
6.361810 2.196644 4.656921 57 55 56
6.372385 2.194086 4.630634 67 65 66
6.384018 2.191864 4.604652 71 69 70
6.393642 2.188998 4.578060 80 78 79
6.403995 2.186363 4.551677 70 68 69
6.412973 2.183292 4.524897 73 71 72
6.427948 2.182111 4.499793 71 69 70
6.441613 2.180508 4.474277 47 45 46
6.452841 2.178134 4.448066 40 38 39
6.462692 2.175328 4.421475 39 37 38
6.473552 2.172834 4.395143 42 42 44
6.484941 2.170502 4.368933 35 36 38
6.497450 2.168513 4.342985 41 42 44
6.507842 2.165865 4.316491 49 50 52
6.515126 2.162262 4.289243 42 43 45
6.524216 2.159216 4.262442 44 45 47
6.532929 2.156055 4.235559 37 38 40
6.540677 2.152604 4.208466 37 36 41
6.548351 2.149132 4.181375 38 39 41
6.553088 2.144777 4.153666 48 48 50
6.561094 2.141416 4.126694 40 40 42
6.573004 2.139230 4.100543 43 43 45
6.582876 2.136430 4.073958 39 39 41
6.593841 2.133956 4.047587 40 41 43
6.605417 2.131661 4.021320 43 44 46
6.616284 2.129152 3.994902 32 33 35
6.626773 2.126529 3.968401 37 38 40
6.638829 2.124366 3.942173 38 39 41
6.647689 2.121259 3.915365 42 43 45
6.657679 2.118484 3.888755 33 34 36
6.668215 2.115869 3.862232 34 35 37
6.678188 2.113087 3.835609 35 36 38
6.686719 2.109886 3.808757 40 40 42
6.698121 2.107518 3.782351 37 37 39
6.709762 2.105215 3.755963 35 36 38
6.718837 2.102171 3.729190 42 42 44
6.728576 2.099318 3.702514 44 44 46
6.737176 2.096139 3.675683 43 43 45
6.747700 2.093510 3.649111 45 45 47
6.759706 2.091300 3.622715 51 51 53
6.769387 2.088428 3.596018 40 40 42
6.779707 2.085737 3.569394 47 48 50
6.790845 2.083273 3.542854 40 40 42
6.799596 2.080138 3.516045 42 42 44
6.809231 2.077251 3.489334 43 43 45
6.821606 2.075128 3.462893 37 37 39
6.832950 2.072713 3.436331 36 37 39
6.841460 2.069510 3.409498 43 44 46
6.849269 2.066116 3.382615 50 51 53
6.855419 2.062269 3.355612 48 49 51
6.862355 2.058642 3.328699 30 34 37
6.873960 2.056298 3.302149 44 45 49
6.879281 2.052236 3.275150 39 38 43
6.882712 2.047668 3.248066 39 40 44
6.885057 2.042817 3.220969 30 33 38
6.884969 2.037320 3.193798 30 33 38
6.899377 2.035743 3.167455 33 34 38
6.910775 2.033350 3.140929 49 47 48
6.916922 2.029549 3.114161 51 51 53
6.925617 2.026433 3.087520 34 35 37
6.935833 2.023723 3.060940 39 40 42
6.950314 2.022141 3.034485 34 35 37
6.966465 2.020994 3.008034 44 45 47
6.968853 2.016210 2.981219 40 41 43
6.977888 2.013183 2.954585 38 38 40
6.986769 2.010117 2.927953 40 40 42
6.996454 2.007262 2.901335 37 37 39
7.006076 2.004390 2.874715 40 41 43
7.015985 2.001592 2.848095 50 51 53
7.024384 1.998404 2.821475 35 36 38
7.038271 1.996632 2.794832 42 43 45
7.050909 1.994531 2.768167 39 40 42
7.066026 1.993060 2.741441 40 41 43
7.075703 1.990192 2.714770 35 36 38
7.079531 1.985836 2.688226 38 39 41
7.089494 1.983045 2.661568 35 36 38
7.101424 1.980751 2.634849 37 37 39
7.114145 1.978651 2.608083 39 39 41
7.122548 1.975463 2.581457 42 42 44
7.131638 1.972447 2.554811 42 41 46
7.143086 1.970022 2.528060 35 36 40
7.162301 1.969526 2.500910 46 47 51
7.168720 1.965841 2.474369 39 40 44
7.178357 1.962957 2.447668 36 37 41
7.187683 1.959996 2.420985 39 40 42
7.196050 1.956799 2.394368 48 49 51
7.205661 1.953910 2.367673 44 44 46
7.212729 1.950399 2.341164 42 42 44
7.220428 1.947046 2.314625 35 35 37
7.225860 1.943145 2.288284 41 41 43
7.240035 1.941366 2.261236 40 38 41
7.250473 1.938679 2.234483 41 39 42
7.267258 1.937515 2.207139 42 40 43
7.281852 1.935816 2.179951 67 65 68
5.289280 2.472529 7.273547 37 35 36
5.286216 2.464149 7.236217 44 42 43
5.301908 2.464172 7.215997 52 51 49
5.311284 2.461368 7.190028 47 46 44
5.318933 2.457799 7.162526 60 59 57
5.329024 2.455312 7.137197 46 45 43
5.342314 2.454233 7.114657 51 50 48
5.349453 2.450443 7.086726 42 41 39
5.359060 2.447738 7.060949 44 43 41
5.370467 2.445818 7.036705 66 65 61
5.376162 2.441409 7.007595 95 94 90
5.382524 2.437299 6.979095 120 119 115
5.391754 2.434435 6.953025 132 131 127
5.405130 2.433358 6.930383 132 128 125
5.416176 2.431269 6.905776 123 120 115
5.423242 2.427473 6.877910 122 119 114
5.432437 2.424591 6.851792 134 129 125
5.443890 2.422669 6.827480 127 122 118
5.456367 2.421175 6.803951 134 129 125
5.479575 2.424206 6.788815 129 126 121
5.494157 2.423568 6.766773 124 121 114
5.508231 2.422702 6.744268 130 127 120
5.517578 2.419846 6.718081 122 119 112
5.529396 2.418020 6.693770 122 119 112
5.537127 2.414489 6.666350 123 122 118
5.546512 2.411648 6.640186 128 127 123
5.550141 2.406429 6.609764 136 135 131
5.561176 2.404275 6.584848 134 133 129
5.573866 2.402795 6.561114 114 113 109
5.579826 2.398554 6.532487 130 129 125
5.587833 2.395156 6.505367 122 118 115
5.597875 2.392589 6.479704 81 77 74
5.605140 2.388895 6.452085 57 53 50
5.622608 2.389328 6.431585 55 51 48
5.634827 2.387627 6.407368 88 87 83
5.643581 2.384527 6.380750 122 121 117
5.645440 2.378670 6.349476 80 79 77
5.657172 2.376771 6.324912 58 57 55
5.665203 2.373393 6.297862 94 93 91
5.674955 2.370702 6.271961 88 87 83
5.679227 2.365844 6.242484 103 99 96
5.693831 2.365068 6.219738 116 112 109
5.702079 2.361784 6.192866 125 121 118
5.712156 2.359219 6.167165 91 87 84
5.728060 2.358925 6.145109 104 100 97
5.733845 2.354679 6.116691 119 115 112
5.737081 2.349455 6.086748 118 114 111
5.741986 2.344890 6.057896 94 90 87
5.750259 2.341634 6.031128 130 129 125
5.761259 2.339427 6.006001 132 131 129
5.769816 2.336282 5.979411 123 122 120
5.782944 2.334883 5.955505 104 103 101
5.792633 2.332166 5.929563 73 72 70
5.803060 2.329729 5.904039 64 63 61
5.816592 2.328463 5.880266 72 71 69
5.828294 2.326497 5.855415 81 80 78
5.837859 2.323724 5.829351 68 68 68
5.847813 2.321095 5.803498 67 67 67
5.858916 2.318894 5.778264 62 62 62
5.867791 2.315860 5.751811 58 58 58
5.875003 2.312210 5.724478 52 52 52
5.882956 2.308839 5.697560 54 54 56
5.890553 2.305340 5.670473 54 54 56
5.897078 2.301451 5.642854 44 44 46
5.905577 2.298292 5.616273 53 53 53
5.916015 2.295844 5.590680 49 49 49
5.925842 2.293170 5.564771 53 53 53
5.934900 2.290216 5.538477 45 45 45
5.945525 2.287830 5.512950 40 40 40
5.955779 2.285308 5.487231 45 45 47
5.966964 2.283118 5.461946 42 42 44
5.975962 2.280140 5.435611 43 43 45
5.984693 2.277068 5.409156 41 41 43
5.996160 2.274971 5.383965 36 36 38
6.005844 2.272237 5.357943 33 33 35
6.015592 2.269525 5.331945 37 37 39
6.027939 2.267730 5.307096 35 35 37
6.040518 2.266009 5.282315 42 42 44
6.051525 2.263730 5.256821 41 41 43
6.063823 2.261898 5.231861 31 31 33
6.075466 2.259833 5.206593 28 28 30
6.085325 2.257142 5.180559 37 37 39
6.093542 2.253882 5.153845 51 51 53
6.101911 2.250677 5.127206 32 30 33
6.110294 2.247479 5.100583 42 40 43
6.119152 2.244447 5.074158 41 39 40
6.129454 2.241908 5.048302 38 36 37
6.137500 2.238600 5.021569 41 39 40
6.142401 2.234225 4.993658 35 35 35
6.153144 2.231839 4.967979 38 36 37
6.163825 2.229429 4.942263 43 41 42
6.172976 2.226501 4.915977 56 54 55
6.181166 2.223252 4.889349 69 67 68
6.189415 2.220024 4.862755 61 59 60
6.198198 2.216977 4.836358 75 73 74
6.206501 2.213772 4.809803 64 64 64
6.217576 2.211488 4.784195 67 65 66
6.228997 2.209315 4.758686 65 63 64
6.239005 2.206672 4.732693 64 62 63
6.248473 2.203851 4.706519 68 66 67
6.260289 2.201797 4.681091 76 74 75
6.272107 2.199740 4.655639 58 56 57
6.281055 2.196744 4.629280 70 68 69
6.291453 2.194220 4.603365 63 61 62
6.302886 2.192028 4.577747 58 57 55
6.312205 2.189151 4.551491 58 56 57
6.322044 2.186440 4.525385 53 51 52
6.329863 2.183082 4.498703 54 52 53
6.342490 2.181262 4.473375 61 59 60
6.354869 2.179358 4.447947 68 66 67
6.367258 2.177450 4.422492 70 68 69
6.378998 2.175332 4.396838 20 18 19
6.389928 2.172953 4.370952 39 39 39
6.401165 2.170668 4.345129 37 37 39
6.412770 2.168494 4.319380 37 38 40
6.422915 2.165860 4.293254 47 48 50
6.429801 2.162210 4.266341 42 43 45
6.437701 2.158879 4.239690 43 44 46
6.446248 2.155752 4.213203 40 40 42
6.454553 2.152552 4.186669 47 47 49
6.462392 2.149210 4.160044 43 44 46
6.466373 2.144688 4.132601 45 45 47
6.474852 2.141552 4.106158 45 45 47
6.487326 2.139635 4.080548 52 52 52
6.496101 2.136589 4.054164 34 34 34
6.507006 2.134189 4.028205 33 33 35
6.518196 2.131872 4.002288 38 39 41
6.529206 2.129498 3.976321 45 49 50
6.539445 2.126889 3.950197 43 44 46
6.552007 2.124974 3.924481 35 36 38
6.561601 2.122168 3.898220 36 37 39
6.571353 2.119408 3.871984 38 39 41
6.582281 2.116997 3.845939 43 44 46
6.591946 2.114209 3.819678 45 46 48
6.600785 2.111178 3.793286 37 38 40
6.611787 2.108783 3.767227 42 43 45
6.623310 2.106538 3.741230 49 50 52
6.631826 2.103411 3.714787 37 37 39
6.640606 2.100363 3.688387 44 44 46
6.649674 2.097400 3.662033 41 41 43
6.659487 2.094653 3.635778 47 47 49
6.671702 2.092597 3.609818 47 47 49
6.681304 2.089786 3.583520 34 34 36
6.692039 2.087298 3.557353 40 41 43
6.703267 2.084949 3.531228 43 43 45
6.711061 2.081620 3.504720 48 48 50
6.719923 2.078596 3.478337 43 43 45
6.731965 2.076473 3.452271 45 45 47
6.743736 2.074270 3.426157 38 39 41
6.752288 2.071157 3.399734 43 44 46
6.760919 2.068068 3.373326 38 39 41
6.767721 2.064469 3.346777 39 40 42
6.774368 2.060831 3.320238 38 44 44
6.786339 2.058677 3.294109 42 46 49
6.791388 2.054603 3.267487 47 47 49
6.794568 2.050020 3.240781 48 46 49
6.798911 2.045768 3.214199 41 39 40
6.804264 2.041801 3.187715 41 43 42
6.817951 2.040120 3.161694 43 44 46
6.823842 2.036306 3.135268 36 35 41
6.826128 2.031520 3.108718 44 45 49
6.833702 2.028178 3.082432 49 50 52
6.845002 2.025845 3.056291 39 40 42
6.858765 2.024171 3.030209 49 50 52
6.874234 2.022948 3.004137 40 41 43
6.877610 2.018480 2.977744 33 34 36
6.885305 2.015174 2.951480 42 42 44
6.893332 2.011959 2.925235 40 40 42
6.902296 2.008995 2.899010 41 41 43
6.912621 2.006391 2.872797 47 47 49
6.922429 2.003649 2.846575 32 33 35
6.930622 2.000482 2.820354 34 35 37
6.945314 1.999019 2.794103 42 43 45
6.956834 1.996719 2.767841 42 43 45
6.970557 1.994989 2.741531 34 35 37
6.979753 1.992077 2.715269 33 34 36
6.984920 1.988126 2.689098 41 42 44
6.995247 1.985510 2.662827 36 37 39
7.005468 1.982866 2.636550 44 44 46
7.019599 1.981221 2.610135 44 44 46
7.029109 1.978390 2.583858 43 42 47
7.039450 1.975770 2.557545 33 32 37
7.049103 1.972974 2.531257 37 38 42
7.068273 1.972583 2.504493 39 40 44
7.073924 1.968770 2.478379 35 36 40
7.083071 1.965841 2.452094 41 42 46
7.094532 1.963493 2.425668 35 36 40
7.104333 1.960727 2.399335 42 43 45
7.114840 1.958136 2.372951 41 42 44
7.120372 1.954309 2.346921 41 41 43
7.125334 1.950346 2.320965 38 38 40
7.128754 1.946011 2.295168 41 41 43
7.141000 1.943854 2.268671 43 43 45
7.153137 1.941666 2.242162 43 43 45
7.171407 1.940973 2.215068 40 40 42
7.193502 1.941197 2.187540 45 45 47
5.234991 2.473095 7.218274 48 46 47
5.233806 2.465586 7.183086 37 36 34
5.246501 2.464373 7.160561 39 38 36
5.258288 2.462740 7.137174 72 68 65
5.265929 2.459242 7.110072 104 100 97
5.277331 2.457428 7.086302 118 114 111
5.289812 2.456089 7.063445 76 72 69
5.297248 2.452500 7.036170 140 136 133
5.305255 2.449169 7.009412 129 125 122
5.314449 2.446366 6.983682 123 120 115
5.320944 2.442375 6.955670 141 138 133
5.327464 2.438403 6.927717 115 112 107
5.338151 2.436260 6.903268 126 123 118
5.347882 2.433696 6.878010 127 124 119
5.358537 2.431532 6.853500 60 57 52
5.367012 2.428420 6.827201 124 121 116
5.374253 2.424778 6.799920 127 124 117
5.385640 2.422924 6.775975 114 111 104
5.396098 2.420667 6.751265 133 130 123
5.418281 2.423418 6.735743 115 112 107
5.431425 2.422282 6.713013 117 114 109
5.444838 2.421250 6.690438 120 117 112
5.455518 2.419050 6.665719 127 124 119
5.466926 2.417153 6.641533 133 130 125
5.473318 2.413140 6.613546 133 132 128
5.480209 2.409343 6.585969 130 129 125
5.485540 2.404901 6.557270 134 133 129
5.496123 2.402658 6.532469 129 128 124
5.507677 2.400815 6.508356 108 107 103
5.512743 2.396280 6.479544 60 59 55
5.518601 2.392081 6.451349 102 98 95
5.527553 2.389165 6.425386 115 111 108
5.536000 2.386043 6.399073 108 105 100
5.555330 2.387373 6.380326 113 110 105
5.567111 2.385600 6.356257 89 86 81
5.576467 2.382834 6.330504 110 109 105
5.579085 2.377340 6.300199 115 114 110
5.589914 2.375178 6.275472 126 125 121
5.600277 2.372823 6.250415 98 94 91
5.612218 2.371100 6.226381 121 117 114
5.615056 2.365729 6.196392 118 117 113
5.631810 2.365922 6.175450 117 116 112
5.641777 2.363400 6.150084 123 122 118
5.652940 2.361349 6.125465 112 111 107
5.667842 2.360771 6.103166 125 124 122
5.677286 2.358029 6.077412 122 121 119
5.683261 2.353925 6.049526 103 102 100
5.687335 2.349085 6.020524 77 76 74
5.696455 2.346226 5.994622 71 70 68
5.708394 2.344465 5.970403 68 67 65
5.719603 2.342413 5.945721 80 78 79
5.731228 2.340518 5.921259 68 66 67
5.741764 2.338197 5.896139 58 56 57
5.753440 2.336312 5.871657 64 62 63
5.764091 2.334027 5.846566 63 61 62
5.773870 2.331408 5.820971 54 52 55
5.781449 2.327949 5.794147 51 51 53
5.789577 2.324704 5.767647 48 48 50
5.797630 2.321432 5.741117 55 55 57
5.804887 2.317863 5.714175 50 50 52
5.812611 2.314474 5.687504 48 48 50
5.818869 2.310540 5.660079 49 49 51
5.824955 2.306549 5.632600 43 43 45
5.831028 2.302560 5.605149 41 41 43
5.839160 2.299343 5.578784 44 44 44
5.848310 2.296505 5.552942 35 35 35
5.858425 2.294023 5.527583 38 38 38
5.868518 2.291531 5.502203 38 38 38
5.876636 2.288312 5.475853 39 39 41
5.885026 2.285197 5.449646 37 37 39
5.895556 2.282863 5.424467 38 38 40
5.905118 2.280173 5.398818 35 35 37
5.913976 2.277229 5.372839 44 44 44
5.924784 2.274989 5.347759 41 41 41
5.934613 2.272395 5.322218 39 39 41
5.944253 2.269730 5.296587 44 44 46
5.956937 2.268153 5.272298 39 39 41
5.970036 2.266716 5.248154 42 42 44
5.981599 2.264725 5.223305 40 40 40
5.994388 2.263163 5.198954 34 34 34
6.006321 2.261291 5.174204 38 38 40
6.016536 2.258809 5.148712 40 38 41
6.024940 2.255689 5.122468 38 36 37
6.033024 2.252459 5.096104 37 35 36
6.040087 2.248876 5.069343 34 32 33
6.047716 2.245493 5.042830 56 52 53
6.057689 2.242928 5.017245 62 58 57
6.065310 2.239548 4.990751 73 69 68
6.071219 2.235582 4.963626 84 83 81
6.080883 2.232912 4.937938 67 66 64
6.090486 2.230221 4.912224 55 54 52
6.098405 2.226954 4.885894 67 63 62
6.104813 2.223176 4.859037 67 63 64
6.111550 2.219516 4.832327 67 65 66
6.118923 2.216076 4.805863 48 46 47
6.125607 2.212408 4.779183 58 56 57
6.136963 2.210315 4.754105 59 58 56
6.149243 2.208527 4.729313 60 59 57
6.158699 2.205790 4.703566 58 57 55
6.168621 2.203207 4.677967 70 68 69
6.180047 2.201123 4.652839 70 68 69
6.192141 2.199255 4.627898 74 72 73
6.200912 2.196285 4.601907 62 60 61
6.210898 2.193716 4.576289 69 67 68
6.221645 2.191394 4.550890 60 59 57
6.229571 2.188148 4.524651 67 66 64
6.239056 2.185412 4.498874 62 61 59
6.247806 2.182437 4.472887 52 50 51
6.258255 2.180014 4.447376 61 59 60
6.268807 2.177621 4.421883 70 68 69
6.281126 2.175794 4.396850 60 58 59
6.293843 2.174089 4.371892 70 68 69
6.305472 2.172029 4.346621 44 44 44
6.317593 2.170122 4.321451 40 40 40
6.329198 2.168045 4.296125 46 46 48
6.340132 2.165750 4.270614 39 40 42
6.348930 2.162778 4.244577 40 41 43
6.357236 2.159652 4.218430 38 38 40
6.365784 2.156603 4.192347 43 43 45
6.373806 2.153392 4.166153 32 32 34
6.380653 2.149817 4.139712 32 33 35
6.383720 2.145070 4.112481 45 46 48
6.391368 2.141756 4.086273 36 36 38
6.403162 2.139726 4.060934 39 39 39
6.410250 2.136241 4.034624 40 40 40
6.423657 2.134703 4.009577 39 39 41
6.435384 2.132641 3.984170 47 48 50
6.445570 2.130105 3.958451 37 41 42
6.455830 2.127589 3.932737 39 40 42
6.468362 2.125761 3.907420 46 47 49
6.477242 2.122822 3.881438 35 36 38
6.486491 2.119995 3.855523 42 42 44
6.498319 2.117944 3.830032 47 48 50
6.507770 2.115175 3.804138 36 37 39
6.515833 2.111991 3.778028 43 44 46
6.527182 2.109789 3.752424 42 43 45
6.538651 2.107619 3.726819 36 37 39
6.547067 2.104540 3.700762 44 44 46
6.555969 2.101607 3.674778 41 41 43
6.565247 2.098785 3.648849 40 40 42
6.574843 2.096056 3.622961 40 40 42
6.586755 2.094004 3.597358 52 52 54
6.596399 2.091286 3.571460 49 49 51
6.606940 2.088829 3.545663 49 50 52
6.618748 2.086736 3.519996 54 54 56
6.627362 2.083716 3.493966 49 49 51
6.635262 2.080492 3.467869 41 41 43
6.647205 2.078431 3.442181 49 49 51
6.658548 2.076194 3.416413 45 46 48
6.666717 2.073047 3.390344 50 51 53
6.674850 2.069892 3.364282 38 39 41
6.680722 2.066098 3.338048 45 46 48
6.685955 2.062129 3.311794 52 54 53
6.696845 2.059762 3.285983 44 45 47
6.702222 2.055843 3.259784 43 43 45
6.704456 2.051050 3.233418 33 31 32
6.708057 2.046652 3.207193 49 45 42
6.716738 2.043678 3.181297 43 42 38
6.731594 2.042418 3.155722 42 44 43
6.738410 2.038924 3.129722 41 44 49
6.741807 2.034491 3.103597 43 44 48
6.750843 2.031619 3.077739 40 41 43
6.760009 2.028783 3.051887 42 43 45
6.772133 2.026755 3.026126 48 49 51
6.785336 2.025017 3.000369 48 49 51
6.787854 2.020370 2.974344 44 45 47
6.795081 2.017009 2.948460 43 43 45
6.803117 2.013870 2.922603 40 40 42
6.812372 2.011062 2.896768 34 34 36
6.821615 2.008250 2.870934 36 36 38
6.831229 2.005537 2.845100 35 36 38
6.839262 2.002402 2.819267 38 39 41
6.853627 2.000952 2.793404 35 36 38
6.863788 1.998380 2.767544 36 37 39
6.877402 1.996719 2.741626 44 45 47
6.887490 1.994121 2.715739 44 45 47
6.891958 1.990048 2.689971 42 42 44
6.900941 1.987164 2.664122 42 42 44
6.909780 1.984242 2.638280 42 42 44
6.921603 1.982098 2.612340 49 49 51
6.929023 1.978808 2.586547 40 39 44
6.940505 1.976570 2.560598 34 33 38
6.950799 1.974023 2.534686 31 30 35
6.966791 1.972938 2.508482 41 40 45
6.972316 1.969162 2.482789 42 42 44
6.981461 1.966316 2.456916 37 37 39
6.993387 1.964178 2.430873 38 38 40
7.004190 1.961750 2.404883 39 39 41
7.015044 1.959334 2.378878 41 40 45
7.021722 1.955862 2.353167 38 37 42
7.026822 1.951998 2.327597 41 40 45
7.032817 1.948364 2.301987 40 39 44
7.044344 1.946118 2.275933 34 33 38
7.057178 1.944193 2.249747 37 36 41
7.072696 1.942929 2.223287 40 39 44
7.096202 1.943631 2.196012 35 34 39
5.173310 2.469651 7.156374 130 126 125
5.177488 2.464642 7.126537 143 139 138
5.189296 2.463130 7.103641 141 137 134
5.200832 2.461486 7.080463 127 124 119
5.208637 2.458144 7.053945 117 112 108
5.219679 2.456268 7.030290 113 108 102
5.232679 2.455270 7.008316 90 85 79
5.240771 2.452055 6.982041 128 123 119
5.249324 2.449049 6.956176 119 116 111
5.259548 2.446791 6.931741 124 121 116
5.266772 2.443195 6.904757 118 115 110
5.273468 2.439370 6.877356 118 113 109
5.284135 2.437308 6.853289 122 117 113
5.292264 2.434122 6.827107 105 100 96
5.300694 2.431072 6.801186 81 76 72
5.308022 2.427540 6.774379 111 106 102
5.317383 2.424901 6.749231 106 103 96
5.328109 2.422856 6.725168 111 110 105
5.338349 2.420596 6.700699 109 108 103
5.359920 2.423233 6.685099 120 119 114
5.370847 2.421247 6.661058 114 113 108
5.382277 2.419472 6.637383 113 112 108
5.392103 2.417004 6.612450 94 93 89
5.403896 2.415374 6.589000 116 115 111
5.410583 2.411562 6.561678 113 112 108
5.418302 2.408196 6.535158 115 114 110
5.424207 2.404066 6.507317 103 102 98
5.433625 2.401426 6.482088 131 130 126
5.441705 2.398223 6.455884 135 134 130
5.446143 2.393495 6.427076 81 77 74
5.453138 2.389849 6.400150 124 120 117
5.461835 2.386918 6.374453 130 126 123
5.469599 2.383599 6.348108 138 133 129
5.487488 2.384475 6.328801 94 91 86
5.499195 2.382778 6.305136 99 95 92
5.507801 2.379798 6.279326 131 127 124
5.513540 2.375644 6.251589 125 121 118
5.526899 2.374614 6.228989 125 121 118
5.538711 2.372942 6.205310 120 116 113
5.552568 2.372095 6.182940 117 113 110
5.558564 2.368052 6.155404 101 100 96
5.576396 2.368794 6.135525 96 95 93
5.588490 2.367207 6.111882 67 66 64
5.600346 2.365515 6.088051 62 61 59
5.615134 2.364990 6.066023 67 65 66
5.624997 2.362488 6.040875 74 72 73
5.631059 2.358473 6.013389 77 75 76
5.635113 2.353671 5.984719 75 73 76
5.643956 2.350772 5.958991 71 69 70
5.654411 2.348509 5.934227 62 60 61
5.664212 2.345985 5.909061 64 62 63
5.674256 2.343556 5.884030 59 57 58
5.683498 2.340812 5.858526 53 51 54
5.692798 2.338090 5.833054 48 46 49
5.703960 2.336089 5.808634 41 39 42
5.713611 2.333499 5.783343 45 43 48
5.719209 2.329348 5.755802 46 46 48
5.726317 2.325784 5.729130 37 37 39
5.734447 2.322618 5.703035 46 46 48
5.740764 2.318760 5.675980 40 40 42
5.746636 2.314741 5.648721 41 41 43
5.753752 2.311201 5.622152 42 42 42
5.760203 2.307415 5.595263 40 40 40
5.765563 2.303223 5.567841 45 45 45
5.773288 2.299929 5.541666 41 41 43
5.781575 2.296849 5.515789 40 40 42
5.792092 2.294605 5.491030 40 40 42
5.802089 2.292162 5.466000 38 38 40
5.808627 2.288435 5.439279 41 41 43
5.816265 2.285120 5.413116 41 41 43
5.825124 2.282258 5.387548 41 41 43
5.833460 2.279206 5.361739 36 36 38
5.841991 2.276226 5.336029 43 43 43
5.853240 2.274241 5.311570 45 45 45
5.862924 2.271681 5.286380 47 47 47
5.872744 2.269169 5.261245 39 39 41
5.885270 2.267636 5.237298 45 45 45
5.897953 2.266152 5.213383 34 34 34
5.908719 2.263969 5.188602 42 40 41
5.920891 2.262289 5.164403 34 32 33
5.932703 2.260472 5.140020 36 34 35
5.942305 2.257861 5.114692 54 52 53
5.950163 2.254630 5.088645 59 57 58
5.957780 2.251316 5.062513 74 72 73
5.964517 2.247694 5.036046 73 69 68
5.971782 2.244263 5.009813 64 60 59
5.981599 2.241733 4.984591 76 72 71
5.989647 2.238582 4.958685 67 63 62
5.995679 2.234730 4.932027 63 62 60
6.004529 2.231865 4.906453 57 56 54
6.013865 2.229169 4.881060 66 62 61
6.022843 2.226349 4.855535 54 50 49
6.029268 2.222649 4.829100 71 67 66
6.035822 2.218999 4.802737 70 66 67
6.044092 2.215943 4.776997 66 64 65
6.050396 2.212216 4.750593 68 66 67
6.061665 2.210187 4.725891 64 60 59
6.074259 2.208603 4.701607 62 61 59
6.083114 2.205746 4.676066 61 60 58
6.092638 2.203115 4.650743 65 64 62
6.104460 2.201257 4.626143 54 52 53
6.116415 2.199437 4.601559 58 56 57
6.124890 2.196449 4.575879 68 66 67
6.134839 2.193953 4.550650 64 60 61
6.145034 2.191537 4.525486 57 56 54
6.152637 2.188260 4.499555 69 68 66
6.161898 2.185534 4.474114 61 60 58
6.170927 2.182731 4.448607 65 64 62
6.180585 2.180135 4.423277 69 67 68
6.190451 2.177607 4.397997 68 66 67
6.201371 2.175420 4.372993 70 68 69
6.212644 2.173345 4.348063 63 61 62
6.223699 2.171194 4.323056 66 64 65
6.235912 2.169415 4.298325 68 68 68
6.248008 2.167591 4.273535 39 39 39
6.260480 2.165883 4.248808 40 41 43
6.270003 2.163223 4.223346 37 38 40
6.277968 2.160065 4.197516 42 42 44
6.286542 2.157104 4.171838 48 48 50
6.293822 2.153733 4.145874 41 39 40
6.300333 2.150123 4.119760 40 41 43
6.303970 2.145611 4.093052 44 45 47
6.311563 2.142354 4.067228 38 38 40
6.321478 2.139827 4.041896 43 41 42
6.327452 2.136067 4.015764 49 49 49
6.339653 2.134254 3.990885 50 50 52
6.353529 2.132956 3.966299 32 33 35
6.364629 2.130788 3.941149 38 42 43
6.374429 2.128215 3.915744 40 41 43
6.387215 2.126560 3.890865 38 39 41
6.396619 2.123861 3.865366 46 47 49
6.405385 2.120966 3.839757 40 40 42
6.417104 2.118972 3.814637 48 48 50
6.426355 2.116224 3.789100 52 53 55
6.433962 2.112977 3.763307 36 37 39
6.445746 2.110994 3.738157 42 43 45
6.457697 2.109057 3.713008 39 40 42
6.465836 2.105971 3.687294 48 48 50
6.473979 2.102888 3.661590 45 45 47
6.483524 2.100224 3.636081 41 41 43
6.493260 2.097618 3.610593 43 43 45
6.504426 2.095434 3.585278 43 43 45
6.513892 2.092743 3.559741 44 44 46
6.524727 2.090456 3.534360 40 41 43
6.535893 2.088264 3.509001 47 47 49
6.544106 2.085202 3.483310 42 42 44
6.553178 2.082393 3.457715 43 43 45
6.565557 2.080547 3.432445 49 49 51
6.576391 2.078247 3.407002 48 49 51
6.584016 2.075015 3.381260 47 48 50
6.592474 2.072026 3.355601 39 40 42
6.598496 2.068338 3.329752 48 49 51
6.603206 2.064279 3.303831 39 39 41
6.614167 2.062015 3.278397 41 43 42
6.619687 2.058197 3.252579 51 53 52
6.622572 2.053637 3.226625 40 44 45
6.627941 2.049791 3.200872 46 49 54
6.636382 2.046819 3.175320 35 38 43
6.648472 2.044877 3.149959 39 40 42
6.654366 2.041190 3.124284 48 50 49
6.658962 2.037145 3.098581 41 42 44
6.668104 2.034376 3.073091 47 48 50
6.676359 2.031361 3.047570 48 49 51
6.688652 2.029467 3.022179 42 43 45
6.701204 2.027639 2.996768 44 45 47
6.704268 2.023190 2.971121 41 42 44
6.710628 2.019657 2.945583 40 40 42
6.718714 2.016603 2.920091 45 45 47
6.728076 2.013898 2.894621 42 42 44
6.737220 2.011133 2.869147 47 47 49
6.747097 2.008567 2.843674 38 39 41
6.755205 2.005521 2.818200 38 39 41
6.768567 2.003895 2.792699 48 49 51
6.777977 2.001198 2.767207 42 43 45
6.789417 1.999046 2.741683 37 38 40
6.799216 1.996451 2.716170 37 38 40
6.803339 1.992342 2.690781 45 45 47
6.812425 1.989560 2.665300 47 47 49
6.821391 1.986747 2.639823 41 41 43
6.831902 1.984342 2.614295 31 30 35
6.838320 1.980857 2.588912 38 37 42
6.849557 1.978640 2.563347 45 44 49
6.859300 1.976030 2.537835 40 39 44
6.873569 1.974600 2.512091 43 42 47
6.879560 1.971008 2.486754 38 38 40
6.888512 1.968190 2.461271 36 36 38
6.899755 1.965963 2.435647 39 39 41
6.908149 1.963000 2.410194 42 42 44
6.917036 1.960164 2.384713 37 37 39
6.923425 1.956689 2.359417 38 37 42
6.931223 1.953578 2.334034 45 44 49
6.938979 1.950458 2.308664 45 46 50
6.948876 1.947884 2.283123 42 41 46
6.960072 1.945637 2.257461 40 39 44
6.977076 1.944851 2.231247 37 36 41
6.996681 1.944707 2.204725 40 39 44
5.113993 2.466618 7.096786 126 123 118
5.123524 2.464156 7.072260 130 125 121
5.135131 2.462651 7.049594 128 123 117
5.145087 2.460379 7.025419 121 116 112
5.152955 2.457146 6.999379 131 126 122
5.163879 2.455314 6.976041 120 115 111
5.176059 2.454049 6.953769 114 109 105
5.185994 2.451755 6.929513 90 85 81
5.196630 2.449775 6.905845 124 121 116
5.206672 2.447522 6.881649 119 116 111
5.212607 2.443418 6.853973 116 113 108
5.218392 2.439255 6.826214 129 126 121
5.227868 2.436752 6.801561 116 112 109
5.236078 2.433684 6.775862 96 92 89
5.244921 2.430898 6.750688 92 88 85
5.253146 2.427840 6.725017 122 118 115
5.261320 2.424761 6.699314 115 111 108
5.271041 2.422365 6.674855 120 116 113
5.279481 2.419405 6.649374 113 109 106
5.300267 2.421849 6.633567 116 112 109
5.310914 2.419838 6.609732 121 117 114
5.322183 2.418092 6.586355 121 117 114
5.331149 2.415343 6.561190 132 128 125
5.343630 2.414113 6.538686 114 110 107
5.351636 2.410945 6.512779 122 119 114
5.361156 2.408430 6.488011 121 118 113
5.366136 2.403971 6.459891 101 98 93
5.373718 2.400633 6.433723 115 111 108
5.380134 2.396802 6.406730 108 104 101
5.384916 2.392285 6.378596 94 90 87
5.393171 2.389248 6.352987 116 112 109
5.402565 2.386692 6.328191 116 112 109
5.408447 2.382661 6.300937 129 125 122
5.422243 2.381952 6.279202 129 128 124
5.434416 2.380553 6.256293 127 126 124
5.445183 2.378560 6.232388 120 119 117
5.453395 2.375503 6.206738 98 97 95
5.467167 2.374747 6.184812 79 78 76
5.480484 2.373791 6.162524 80 79 77
5.495231 2.373413 6.141121 59 58 56
5.505329 2.371114 6.116631 63 61 62
5.523695 2.372191 6.097443 48 48 48
5.534057 2.369984 6.073043 62 60 63
5.546327 2.368549 6.049830 67 65 68
5.560337 2.367810 6.027667 72 70 73
5.569397 2.365061 6.002381 65 63 66
5.574213 2.360605 5.974495 70 70 72
5.576496 2.355144 5.945124 53 53 55
5.584475 2.351977 5.919255 60 58 59
5.594549 2.349647 5.894645 54 54 52
5.604299 2.347186 5.869831 49 49 49
5.613382 2.344460 5.844621 45 45 45
5.621984 2.341542 5.819132 45 45 47
5.628563 2.337831 5.792495 38 38 40
5.640650 2.336286 5.768998 38 38 40
5.649280 2.333382 5.743533 45 45 47
5.653455 2.328741 5.715606 36 36 38
5.661184 2.325494 5.689683 45 43 46
5.669117 2.322329 5.663885 35 33 36
5.675108 2.318416 5.637059 43 41 44
5.680638 2.314333 5.610023 41 39 42
5.688074 2.310990 5.584027 41 39 42
5.693425 2.306852 5.556967 39 37 40
5.697793 2.302348 5.529445 48 46 49
5.706208 2.299395 5.504029 40 40 42
5.714480 2.296390 5.478549 48 49 51
5.724377 2.294000 5.453884 44 45 47
5.733933 2.291479 5.429041 44 45 47
5.740654 2.287892 5.402816 45 47 46
5.749012 2.284924 5.377402 36 36 36
5.758667 2.282441 5.352611 35 35 35
5.766374 2.279232 5.326899 45 45 45
5.773868 2.275946 5.301103 43 43 45
5.785814 2.274312 5.277361 43 43 45
5.796755 2.272299 5.253132 43 43 43
5.807645 2.270265 5.228859 43 41 42
5.820071 2.268788 5.205244 47 45 46
5.831887 2.267082 5.181326 46 45 43
5.842167 2.264809 5.156717 65 64 62
5.853847 2.263042 5.132689 76 72 71
5.864242 2.260804 5.108093 67 65 66
5.872521 2.257798 5.082606 64 62 63
5.880420 2.254658 5.056972 67 65 66
5.887834 2.251345 5.031153 67 63 64
5.894840 2.247890 5.005188 63 59 60
5.902695 2.244743 4.979579 64 60 61
5.912242 2.242200 4.954639 58 54 55
5.919734 2.238927 4.928907 64 58 60
5.925119 2.234913 4.902395 66 62 61
5.932692 2.231677 4.876736 73 69 68
5.940563 2.228549 4.851200 72 68 67
5.949346 2.225744 4.826007 75 71 70
5.955612 2.222059 4.799918 56 52 51
5.961996 2.218422 4.773899 57 53 52
5.970933 2.215676 4.748791 50 49 47
5.977357 2.212061 4.722826 56 55 53
5.989686 2.210489 4.698874 58 54 55
6.002581 2.209104 4.675076 65 63 64
6.012198 2.206587 4.650167 67 65 66
6.021653 2.204013 4.625202 62 60 61
6.033020 2.202090 4.600836 55 53 54
6.044174 2.200089 4.576381 55 55 55
6.052004 2.196959 4.550886 53 53 53
6.061584 2.194421 4.525930 54 54 54
6.071214 2.191900 4.500984 60 59 57
6.079673 2.188984 4.475689 54 53 51
6.089062 2.186380 4.450667 61 60 58
6.097578 2.183485 4.425396 57 56 54
6.106844 2.180840 4.400337 72 71 69
6.116782 2.178417 4.375458 75 71 70
6.127349 2.176200 4.350738 67 63 62
6.137421 2.173818 4.325873 67 63 62
6.147580 2.171461 4.301021 65 64 62
6.157231 2.168936 4.276030 72 71 69
6.167498 2.166610 4.251184 67 67 67
6.181126 2.165377 4.227144 69 69 69
6.191856 2.163194 4.202369 49 49 49
6.200941 2.160475 4.177195 37 38 40
6.209790 2.157680 4.151965 42 43 45
6.216740 2.154274 4.126312 31 32 34
6.222595 2.150522 4.100439 34 35 37
6.227171 2.146367 4.074321 39 40 42
6.235214 2.143325 4.048973 47 48 50
6.245587 2.141026 4.024112 53 54 56
6.253053 2.137803 3.998655 40 41 43
6.264403 2.135809 3.973973 43 43 45
6.276661 2.134098 3.949444 41 41 43
6.287196 2.131839 3.924563 37 37 39
6.295311 2.128819 3.899228 45 46 48
6.308372 2.127346 3.874779 34 35 37
6.319722 2.125331 3.849998 51 52 54
6.328639 2.122559 3.824785 46 47 49
6.338861 2.120189 3.799788 39 40 42
6.348423 2.117615 3.774674 41 42 44
6.356069 2.114450 3.749259 48 48 50
6.367134 2.112335 3.724371 40 40 42
6.378464 2.110298 3.699503 48 48 50
6.385608 2.106981 3.674023 38 38 40
6.393324 2.103842 3.648638 41 41 43
6.403229 2.101368 3.623555 44 44 46
6.412755 2.098778 3.598416 36 37 39
6.422564 2.096272 3.573307 37 38 40
6.430873 2.093315 3.548013 42 43 45
6.441440 2.091034 3.522985 38 39 41
6.452994 2.089045 3.498052 39 39 39
6.461538 2.086157 3.472778 36 36 36
6.470165 2.083294 3.447517 50 50 52
6.482383 2.081493 3.422610 42 42 44
6.493499 2.079361 3.397572 40 40 42
6.501824 2.076406 3.372268 46 47 49
6.510680 2.073608 3.347016 37 38 40
6.518021 2.070369 3.321644 33 34 36
6.523950 2.066721 3.296179 45 46 48
6.533437 2.064111 3.270996 34 35 37
6.538941 2.060349 3.245541 46 47 49
6.542723 2.056096 3.220006 48 49 51
6.548408 2.052399 3.194628 46 47 51
6.556716 2.049460 3.169422 38 39 43
6.567440 2.047212 3.144345 40 40 42
6.572927 2.043469 3.119010 50 48 49
6.576493 2.039188 3.093623 32 36 37
6.585001 2.036314 3.068470 38 42 45
6.592418 2.033134 3.043284 34 35 37
6.602802 2.030792 3.018201 33 33 35
6.613674 2.028584 2.993118 43 45 44
6.619462 2.024951 2.967910 40 44 45
6.628234 2.022155 2.942781 37 41 44
6.635986 2.019077 2.917640 41 42 46
6.644989 2.016346 2.892522 43 43 45
6.654556 2.013772 2.867406 41 41 43
6.664644 2.011341 2.842286 35 36 38
6.673009 2.008435 2.817163 44 45 47
6.685371 2.006624 2.792017 36 37 39
6.695022 2.004068 2.766875 44 45 47
6.704335 2.001418 2.741732 41 42 44
6.713550 1.998741 2.716588 42 43 45
6.717766 1.994712 2.691557 36 37 39
6.726401 1.991883 2.666445 42 43 45
6.733704 1.988696 2.641378 47 48 50
6.742977 1.986039 2.616256 37 38 40
6.750857 1.983011 2.591185 35 36 38
6.759252 1.980120 2.566101 40 41 43
6.767701 1.977246 2.541020 34 35 37
6.780741 1.975588 2.515712 32 33 37
6.787221 1.972192 2.490728 43 43 45
6.795268 1.969212 2.465673 38 37 42
6.807356 1.967294 2.440375 42 41 46
6.818498 1.965124 2.415116 42 41 46
6.826706 1.962185 2.390044 38 38 40
6.830513 1.958103 2.365302 44 44 46
6.838511 1.955116 2.340276 38 38 40
6.845829 1.951954 2.315313 40 40 42
6.854091 1.949039 2.290282 44 43 48
6.867025 1.947324 2.264842 40 39 44
6.885665 1.947065 2.238845 48 47 52
6.906206 1.947276 2.212592 48 47 52
5.061631 2.466190 7.043689 123 118 114
5.071736 2.464085 7.020086 127 122 118
5.082157 2.462123 6.996749 117 112 108
5.091856 2.459821 6.972748 92 87 83
5.098651 2.456169 6.946167 108 103 99
5.108956 2.454146 6.922693 122 117 113
5.120624 2.452747 6.900386 100 95 91
5.131464 2.450961 6.877326 110 105 102
5.141600 2.448845 6.853635 98 95 90
5.151204 2.446483 6.829475 87 84 79
5.158121 2.442896 6.803041 106 103 98
5.164434 2.439041 6.776131 111 108 103
5.173707 2.436532 6.751708 106 103 98
5.181695 2.433442 6.726223 83 79 76
5.189279 2.430173 6.700421 113 109 106
5.198029 2.427430 6.675579 115 111 108
5.206843 2.424717 6.650791 105 102 97
5.216212 2.422251 6.626445 107 104 99
5.225689 2.419831 6.602177 120 117 112
5.245349 2.421916 6.585864 107 104 99
5.256699 2.420305 6.562965 112 109 104
5.269278 2.419228 6.540979 113 110 105
5.279242 2.416995 6.516952 113 110 105
5.291745 2.415868 6.494830 113 110 105
5.299936 2.412852 6.469429 99 96 91
5.309424 2.410402 6.445002 98 95 90
5.317174 2.407198 6.419288 92 88 85
5.326012 2.404466 6.394382 106 102 99
5.335212 2.401891 6.369740 106 102 99
5.340468 2.397623 6.342266 117 113 112
5.348361 2.394492 6.316712 85 81 78
5.359368 2.392692 6.293365 67 63 60
5.366804 2.389368 6.267498 59 58 56
5.377361 2.387371 6.243809 61 60 58
5.388360 2.385556 6.220403 66 65 63
5.399288 2.383706 6.196921 78 77 75
5.408095 2.380960 6.171988 74 73 71
5.418499 2.378883 6.148121 65 64 62
5.431172 2.377748 6.125733 68 66 67
5.446267 2.377612 6.104885 55 53 54
5.454784 2.374732 6.079697 63 63 63
5.468688 2.374079 6.057972 56 56 56
5.479109 2.371979 6.033972 54 52 53
5.490781 2.370389 6.010742 50 48 49
5.502398 2.368769 5.987445 42 40 41
5.510663 2.365774 5.962045 54 52 53
5.515240 2.361280 5.934397 50 50 50
5.516734 2.355546 5.904933 48 48 48
5.523361 2.351907 5.878638 48 48 48
5.532143 2.349143 5.853650 47 47 47
5.540675 2.346278 5.828517 44 44 44
5.548102 2.342972 5.802745 43 43 43
5.557427 2.340427 5.778085 42 42 44
5.565275 2.337294 5.752577 49 49 51
5.577647 2.335959 5.729635 45 45 45
5.585576 2.332858 5.704172 44 44 44
5.590301 2.328494 5.676950 41 41 43
5.597657 2.325175 5.651214 45 45 47
5.604179 2.321533 5.625046 39 39 41
5.611131 2.318065 5.599136 37 37 39
5.616940 2.314157 5.572642 50 50 52
5.625133 2.311181 5.547433 34 34 36
5.631093 2.307343 5.521075 35 35 37
5.635074 2.302747 5.493736 37 37 39
5.643263 2.299783 5.468586 36 36 38
5.650677 2.296523 5.443056 42 42 44
5.659829 2.293932 5.418403 37 37 39
5.669772 2.291643 5.394135 33 33 33
5.676178 2.288005 5.368142 49 49 49
5.683579 2.284750 5.342653 48 48 48
5.692493 2.282072 5.317897 44 44 44
5.699538 2.278687 5.292266 52 51 49
5.705681 2.274969 5.266237 54 54 54
5.715997 2.272820 5.242146 63 63 63
5.725646 2.270420 5.217739 61 59 60
5.735449 2.268075 5.193392 67 65 66
5.746848 2.266319 5.169738 65 63 64
5.757308 2.264211 5.145648 54 53 51
5.766600 2.261668 5.121038 70 66 65
5.777249 2.259624 5.097002 68 64 63
5.786880 2.257203 5.072519 60 58 59
5.795983 2.254586 5.047810 62 60 61
5.805694 2.252191 5.023347 58 56 57
5.814144 2.249335 4.998366 63 59 60
5.822155 2.246322 4.973216 70 66 67
5.830690 2.243500 4.948281 58 54 55
5.839704 2.240851 4.923535 69 65 66
5.847438 2.237742 4.898299 69 65 66
5.854295 2.234322 4.872745 71 67 66
5.861697 2.231100 4.847413 69 65 64
5.868938 2.227825 4.822039 66 62 61
5.878207 2.225272 4.797414 67 63 62
5.884850 2.221790 4.771850 66 62 61
5.890265 2.217880 4.745877 64 60 59
5.899290 2.215246 4.721189 69 65 64
5.906352 2.211924 4.695830 46 42 41
5.918566 2.210406 4.672221 58 56 57
5.931297 2.209062 4.648749 72 70 71
5.941594 2.206863 4.624444 70 68 69
5.951311 2.204461 4.599940 63 61 62
5.963037 2.202751 4.576062 53 51 52
5.974501 2.200944 4.552074 60 58 59
5.982943 2.198095 4.527136 51 49 50
5.992532 2.195640 4.502547 51 49 50
6.002301 2.193245 4.478006 53 52 50
6.011003 2.190485 4.453145 55 54 52
6.020087 2.187854 4.428395 55 54 52
6.027987 2.184824 4.403310 65 64 62
6.036786 2.182098 4.378484 70 69 67
6.046395 2.179644 4.353878 73 72 70
6.055845 2.177136 4.329223 65 61 62
6.064160 2.174248 4.304266 70 66 67
6.072525 2.171377 4.279327 72 70 71
6.081061 2.168564 4.254436 70 70 70
6.089975 2.165877 4.229643 60 60 60
6.102659 2.164434 4.205763 68 68 68
6.115607 2.163071 4.181911 66 66 66
6.126405 2.160994 4.157518 42 43 45
6.135734 2.158433 4.132772 48 49 51
6.143131 2.155241 4.107591 38 39 41
6.148398 2.151361 4.081958 40 41 43
6.151924 2.146923 4.055985 39 40 42
6.160862 2.144244 4.031198 37 38 40
6.170963 2.141940 4.006648 50 51 53
6.177626 2.138529 3.981398 39 40 42
6.188213 2.136379 3.956936 39 40 42
6.200880 2.134889 3.932857 52 52 54
6.211391 2.132706 3.908340 34 34 36
6.220191 2.129977 3.883498 48 49 51
6.233064 2.128537 3.859378 39 40 42
6.244151 2.126526 3.834915 46 47 49
6.252586 2.123677 3.809985 33 34 36
6.260551 2.120682 3.784983 41 42 44
6.270116 2.118188 3.760244 43 44 46
6.277436 2.114994 3.735152 41 41 43
6.288051 2.112826 3.710569 53 53 55
6.299066 2.110779 3.686028 40 40 42
6.306516 2.107627 3.660967 43 43 45
6.315379 2.104913 3.636111 35 35 37
6.324485 2.102273 3.611288 44 44 46
6.334136 2.099800 3.586532 35 36 38
6.343919 2.097366 3.561787 46 47 49
6.351992 2.094410 3.536830 52 53 55
6.362453 2.092180 3.512155 38 39 41
6.374300 2.090366 3.487618 42 42 42
6.383887 2.087866 3.462817 36 36 36
6.391529 2.084780 3.437813 48 48 50
6.403338 2.082945 3.413225 39 39 41
6.414245 2.080835 3.388528 39 39 41
6.423306 2.078171 3.363650 49 49 51
6.432703 2.075608 3.338800 44 45 47
6.440480 2.072563 3.313816 35 36 38
6.447187 2.069206 3.288761 42 43 45
6.454535 2.066040 3.263770 40 41 43
6.460205 2.062385 3.238681 42 43 45
6.464000 2.058188 3.213500 34 35 37
6.469200 2.054409 3.188445 47 47 49
6.477787 2.051621 3.163606 43 43 45
6.488698 2.049508 3.138888 48 48 50
6.494634 2.045954 3.113922 35 35 37
6.497900 2.041635 3.088869 41 45 46
6.507506 2.039147 3.064103 48 49 51
6.515787 2.036279 3.039286 46 46 48
6.525877 2.033928 3.014528 49 49 49
6.535779 2.031521 2.989756 37 39 38
6.543147 2.028394 2.964921 44 48 49
6.552043 2.025702 2.940124 42 43 45
6.557633 2.022077 2.915285 44 44 46
6.567480 2.019655 2.890511 40 40 42
6.577806 2.017365 2.865731 49 49 51
6.587440 2.014880 2.840940 43 44 46
6.595520 2.011960 2.816147 37 38 40
6.607036 2.009996 2.791336 40 41 43
6.616238 2.007388 2.766531 38 39 41
6.622480 2.003961 2.741766 35 36 38
6.631361 2.001265 2.716973 38 39 41
6.636395 1.997513 2.692269 48 48 50
6.645777 1.994957 2.667478 38 38 40
6.653589 1.991973 2.642731 44 44 46
6.662626 1.989323 2.617951 45 45 47
6.671218 1.986552 2.593186 35 35 37
6.678294 1.983371 2.568489 40 39 44
6.685461 1.980219 2.543801 26 25 30
6.698401 1.978621 2.518836 45 44 49
6.705474 1.975444 2.494158 46 46 48
6.713337 1.972481 2.469447 40 39 44
6.724614 1.970429 2.444533 40 39 44
6.736004 1.968403 2.419593 41 40 45
6.744725 1.965667 2.394820 45 45 47
6.749839 1.961978 2.370314 47 47 47
6.758727 1.959289 2.345544 42 42 44
6.764370 1.955749 2.321038 42 41 46
6.772902 1.952969 2.296311 46 45 50
6.786252 1.951446 2.271159 38 37 42
6.797629 1.949404 2.246156 40 39 44
6.818031 1.949696 2.220263 39 38 43
5.014132 2.467485 6.995152 113 108 105
5.016932 2.462004 6.965312 120 115 112
5.027804 2.460351 6.942796 117 112 109
5.038871 2.458784 6.920424 84 79 76
5.045374 2.455069 6.893990 86 81 78
5.054404 2.452542 6.869801 109 104 101
5.065057 2.450771 6.847019 123 118 115
5.075802 2.449038 6.824290 122 117 114
5.084907 2.446538 6.800131 102 97 93
5.094747 2.444377 6.776591 110 105 101
5.102210 2.441119 6.751036 104 99 95
5.109030 2.437570 6.724962 98 95 90
5.119589 2.435737 6.702011 111 108 103
5.127500 2.432691 6.676860 114 110 107
5.135081 2.429497 6.651453 110 106 103
5.143111 2.426511 6.626424 61 57 54
5.152018 2.423922 6.602107 123 120 115
5.160938 2.421339 6.577798 113 110 105
5.171049 2.419291 6.554426 109 106 101
