9.043239 -2.375711 14.959876 224 222 210
9.095380 -2.380492 14.911718 226 224 212
9.149195 -2.385760 14.865776 226 224 212
9.200369 -2.390224 14.815936 227 225 213
9.250695 -2.394426 14.764797 228 226 213
9.299273 -2.398103 14.711160 230 228 216
9.343149 -2.400394 14.651075 175 175 165
9.383981 -2.401800 14.586966 205 201 190
9.416810 -2.400886 14.512331 227 217 205
9.401380 -2.385983 14.374293 183 170 153
9.366405 -2.365566 14.212272 111 96 75
9.362007 -2.354144 14.091925 124 109 88
9.380878 -2.349516 14.002700 127 110 90
9.408637 -2.347488 13.925432 116 99 81
9.439939 -2.346509 13.853061 120 107 90
9.478844 -2.347719 13.790507 66 54 40
9.518359 -2.349115 13.728863 64 52 40
9.553592 -2.349316 13.662121 63 49 38
9.597304 -2.351919 13.605882 89 73 60
9.639815 -2.354190 13.548238 100 82 68
9.684420 -2.357048 13.493141 104 87 69
9.731771 -2.360671 13.441290 101 86 67
9.773356 -2.362695 13.382673 100 83 65
9.814146 -2.364506 13.323221 96 79 63
9.859276 -2.367518 13.268826 94 78 62
9.905277 -2.370768 13.215415 87 71 56
9.951012 -2.373945 13.161688 85 69 54
9.999429 -2.377849 13.110924 79 63 50
10.044937 -2.380959 13.056895 59 46 37
10.068452 -2.378134 12.978933 51 38 32
10.107801 -2.379607 12.918488 48 35 26
10.156319 -2.383548 12.867943 62 49 43
10.216828 -2.390685 12.829998 64 51 42
10.279016 -2.398241 12.793493 63 49 40
10.328771 -2.402469 12.743759 63 50 34
10.374075 -2.405511 12.689367 70 59 41
10.410829 -2.406301 12.626286 73 54 40
10.443474 -2.406027 12.559238 77 60 44
10.475741 -2.405675 12.492062 76 63 44
10.518705 -2.408136 12.435689 76 63 44
10.558669 -2.409821 12.376426 80 64 49
10.604497 -2.413034 12.322934 80 62 50
10.654299 -2.417273 12.273236 77 59 45
10.702601 -2.421118 12.222027 76 60 44
10.752892 -2.425467 12.172626 80 62 48
10.799011 -2.428741 12.119247 85 66 52
10.850142 -2.433292 12.070469 88 69 55
10.908302 -2.439620 12.027991 88 69 55
10.956626 -2.443435 11.976398 88 70 56
11.005793 -2.447457 11.925503 92 74 60
11.053481 -2.451101 11.873230 92 74 60
11.102367 -2.455042 11.821962 95 77 63
11.136962 -2.455400 11.758230 99 81 67
11.176160 -2.456922 11.698638 99 81 67
11.218247 -2.459173 11.641606 103 84 69
11.264234 -2.462396 11.587911 97 78 61
11.322358 -2.468619 11.544322 93 74 57
11.374713 -2.473401 11.495754 101 84 68
11.427369 -2.478247 11.447316 107 94 78
11.473746 -2.481543 11.393679 102 90 76
11.519005 -2.484563 11.339127 109 93 77
11.580332 -2.491499 11.297314 107 89 75
11.643721 -2.498914 11.256864 96 80 67
11.697080 -2.503874 11.208334 78 61 53
11.747773 -2.508178 11.157632 89 85 74
11.800541 -2.512975 11.108426 74 60 47
11.863403 -2.520187 11.066713 110 91 76
11.916197 -2.524963 11.017225 121 104 86
11.963894 -2.528512 10.963865 126 109 93
12.022248 -2.534597 10.918260 124 108 92
12.076272 -2.539637 10.869331 122 106 90
12.144798 -2.548100 10.830656 121 102 88
12.235510 -2.561774 10.807355 114 95 80
12.302946 -2.569907 10.767081 111 96 77
12.364390 -2.576605 10.722341 109 97 75
12.429715 -2.584192 10.680039 117 102 81
12.491513 -2.590930 10.635068 111 100 82
12.543051 -2.595258 10.582979 110 94 79
12.602741 -2.601475 10.536237 121 104 86
12.662457 -2.607679 10.489323 117 103 77
12.709350 -2.610904 10.433875 121 104 86
12.760442 -2.615097 10.381124 127 111 96
12.836357 -2.624991 10.344128 113 104 89
12.994042 -2.653601 10.358276 103 96 86
13.717987 -2.803633 10.634150 229 225 213
13.774175 -2.808513 10.579178 231 227 216
13.831983 -2.813752 10.525093 229 227 215
13.895613 -2.820299 10.474372 228 225 216
13.945502 -2.823727 10.415348 227 225 213
14.003144 -2.828901 10.360846 226 224 212
14.068079 -2.835703 10.310450 226 224 212
14.132393 -2.842348 10.259501 224 222 210
14.203637 -2.850527 10.212279 226 224 212
14.265285 -2.856541 10.159422 223 221 209
14.315104 -2.859910 10.099878 223 221 209
14.372281 -2.864912 10.044352 224 222 210
14.429030 -2.869811 9.988501 222 220 208
14.491058 -2.875868 9.935381 222 220 208
14.551959 -2.881663 9.881516 222 220 208
14.617685 -2.888507 9.830035 223 219 208
14.678600 -2.894279 9.775881 222 219 210
14.735736 -2.899213 9.719666 220 220 210
14.799643 -2.905616 9.666779 219 219 209
14.855875 -2.910335 9.609901 223 221 209
14.909469 -2.914474 9.551652 214 212 199
14.966477 -2.919349 9.495023 219 217 205
15.030428 -2.925717 9.441650 218 218 210
15.094629 -2.932125 9.388237 219 216 207
15.158279 -2.938400 9.334404 219 216 207
15.220572 -2.944370 9.279789 220 217 208
15.282682 -2.950289 9.224953 220 217 208
15.341256 -2.955441 9.168383 219 216 207
15.398142 -2.960225 9.110966 219 216 207
15.457762 -2.965584 9.054684 220 217 208
15.515572 -2.970550 8.997509 220 217 208
15.584558 -2.977875 8.945069 221 218 209
15.648412 -2.984097 8.890244 222 220 208
15.712545 -2.990366 8.835393 221 221 209
15.802341 -3.002017 8.791046 222 222 210
15.881894 -3.011483 8.742087 218 218 208
15.947433 -3.017988 8.687157 221 221 213
16.015505 -3.025009 8.633083 222 222 212
16.089674 -3.033285 8.581234 222 222 212
16.165842 -3.041955 8.529921 222 222 210
16.254601 -3.053215 8.483184 223 223 211
16.330332 -3.061743 8.431128 222 222 212
16.412956 -3.071674 8.381400 219 219 209
16.505775 -3.083678 8.335117 222 222 212
16.609013 -3.097789 8.292212 222 222 210
16.708765 -3.111139 8.247543 221 221 209
16.794500 -3.121577 8.197440 225 226 212
16.848249 -3.125445 8.135837 224 222 210
16.935534 -3.136153 8.085759 224 222 210
16.993677 -3.140899 8.025449 225 223 211
17.075327 -3.150415 7.972945 223 220 211
17.162722 -3.161070 7.922053 221 218 209
17.210180 -3.163617 7.857841 222 219 210
17.285639 -3.171820 7.802645 222 219 210
17.371883 -3.182177 7.750638 222 219 210
17.447226 -3.190313 7.694923 222 219 210
17.525711 -3.199062 7.639958 221 218 209
17.591869 -3.205321 7.581030 219 219 209
17.666204 -3.213203 7.524409 219 219 209
17.749687 -3.222892 7.470271 219 219 209
17.831476 -3.232219 7.415365 219 219 209
17.911627 -3.241197 7.359732 219 216 207
17.977755 -3.247374 7.299937 218 215 206
18.040621 -3.252895 7.239127 218 218 208
18.124214 -3.262501 7.183838 218 218 208
18.205627 -3.271654 7.127700 217 217 207
18.320948 -3.287454 7.080199 217 217 207
6.798065 -2.092818 16.972260 213 213 203
6.847976 -2.097543 16.928421 213 213 203
6.898318 -2.102403 16.885311 213 213 203
6.939738 -2.104068 16.822506 215 215 205
6.987450 -2.107975 16.773451 217 214 205
7.039737 -2.113482 16.734055 221 219 207
7.089380 -2.118037 16.688759 197 195 183
7.138202 -2.122289 16.641556 215 213 200
7.188138 -2.126915 16.596500 212 212 202
7.240433 -2.132336 16.556084 214 214 204
7.292366 -2.137608 16.514637 215 212 203
7.343194 -2.142481 16.470707 219 217 205
7.390705 -2.146209 16.419964 215 213 201
7.444246 -2.151965 16.380989 214 211 202
7.496150 -2.157144 16.338511 213 213 203
7.550124 -2.162992 16.299763 213 213 203
7.603873 -2.168738 16.260258 216 213 204
7.654071 -2.173283 16.213743 217 214 205
7.706747 -2.178629 16.171680 215 215 205
7.756497 -2.182994 16.123951 215 215 205
7.809434 -2.188385 16.081902 215 215 205
7.862207 -2.193700 16.039293 215 215 205
7.913845 -2.198628 15.994398 213 213 201
7.966002 -2.203705 15.950218 210 210 198
8.019328 -2.209136 15.907867 217 215 203
8.074677 -2.215188 15.868777 217 215 203
8.128271 -2.220658 15.826343 217 215 203
8.181293 -2.225925 15.782672 217 215 203
8.230062 -2.229837 15.731591 218 216 204
8.280568 -2.234285 15.683321 218 216 204
8.333413 -2.239447 15.638779 218 216 204
8.385196 -2.244262 15.592278 217 215 203
8.437795 -2.249314 15.546922 217 215 203
8.488054 -2.253630 15.497605 218 216 204
8.540834 -2.258705 15.452171 219 217 205
8.591771 -2.263203 15.403631 219 217 205
8.644626 -2.268269 15.357941 220 218 206
8.699948 -2.274062 15.315863 219 217 205
8.745598 -2.276928 15.258726 219 217 205
8.795090 -2.280946 15.207431 221 219 207
8.846691 -2.285583 15.159207 222 220 208
8.895955 -2.289515 15.107366 222 220 208
8.944153 -2.293125 15.053874 222 220 208
8.994756 -2.297437 15.003836 223 221 209
9.044481 -2.301484 14.952418 224 222 210
9.095916 -2.306020 14.903350 225 223 211
9.148182 -2.310787 14.855323 226 224 212
9.200265 -2.315488 14.806883 227 225 213
9.252787 -2.320302 14.758902 227 225 213
9.300654 -2.323767 14.704374 225 225 213
9.344957 -2.326212 14.644969 175 175 165
9.388340 -2.328400 14.584388 226 224 212
9.433706 -2.331157 14.526538 210 204 190
9.462201 -2.329154 14.446445 239 230 213
9.462286 -2.319198 14.329666 80 69 51
9.468598 -2.311089 14.222129 71 58 41
9.493101 -2.308142 14.138919 76 63 47
9.525197 -2.307352 14.065887 71 58 42
9.559570 -2.307222 13.996063 81 67 54
9.600077 -2.308809 13.934158 61 49 37
9.641670 -2.310706 13.873724 60 47 38
9.686065 -2.313379 13.816813 59 46 37
9.742015 -2.319209 13.773917 63 49 40
9.794388 -2.324046 13.726499 72 58 47
9.848534 -2.329350 13.681033 78 64 51
9.902233 -2.334518 13.634854 79 66 50
9.951937 -2.338596 13.583850 83 70 54
9.995139 -2.340924 13.525268 85 69 56
10.049772 -2.346310 13.479796 81 67 54
10.098872 -2.350208 13.427879 78 64 53
10.138240 -2.351518 13.365001 74 60 49
10.186494 -2.355190 13.312117 61 47 38
10.232533 -2.358274 13.256754 51 41 29
10.270213 -2.359164 13.192303 55 45 35
10.305148 -2.359351 13.125071 52 46 34
10.358349 -2.364319 13.077548 26 22 19
10.414270 -2.369982 13.032746 27 22 16
10.473039 -2.376364 12.990719 70 57 51
10.532498 -2.382902 12.949148 74 58 45
10.582354 -2.386947 12.897459 70 54 41
10.632130 -2.390965 12.845614 93 76 60
10.677720 -2.393908 12.789489 99 80 63
10.708192 -2.393002 12.718318 102 83 66
10.732372 -2.390524 12.641246 104 85 71
10.757420 -2.388302 12.565442 106 86 75
10.798583 -2.390178 12.505624 105 87 77
10.841361 -2.392469 12.447441 108 90 76
10.887692 -2.395654 12.392686 111 94 78
10.936598 -2.399482 12.340339 114 97 81
10.988900 -2.404151 12.291096 115 98 82
11.038333 -2.408098 12.239092 115 98 82
11.085519 -2.411483 12.184978 114 97 81
11.129500 -2.414075 12.127947 117 100 84
11.180122 -2.418304 12.076886 115 98 82
11.233418 -2.423182 12.028108 110 93 77
11.286963 -2.428109 11.979420 109 92 76
11.321360 -2.428358 11.913991 109 93 77
11.361802 -2.430094 11.853953 112 95 79
11.402061 -2.431793 11.793856 106 89 73
11.442675 -2.433586 11.734150 111 94 78
11.499007 -2.439172 11.687635 110 92 78
11.566958 -2.447532 11.650534 100 82 70
11.629628 -2.454597 11.608754 77 60 50
11.674439 -2.457376 11.552260 73 59 50
11.715058 -2.459160 11.492432 71 59 47
11.768903 -2.464089 11.443172 75 65 55
11.835165 -2.471946 11.403528 60 47 39
11.897985 -2.478963 11.360891 46 35 33
11.948789 -2.483131 11.308758 46 41 37
12.001014 -2.487627 11.257633 62 43 36
12.059520 -2.493584 11.211146 109 87 74
12.113932 -2.498569 11.161420 103 90 71
12.143890 -2.497856 11.093529 108 91 71
12.185912 -2.499962 11.034695 110 93 73
12.230374 -2.502638 10.977689 109 92 72
12.273951 -2.505112 10.920076 107 88 71
12.342130 -2.513251 10.879920 99 80 65
12.396941 -2.518295 10.830077 103 86 70
12.454103 -2.523865 10.781741 86 70 54
12.527450 -2.533117 10.744353 78 61 45
12.594337 -2.540865 10.702194 76 63 47
12.651553 -2.546393 10.653249 89 73 60
12.715596 -2.553454 10.608691 101 85 62
12.781250 -2.560858 10.564949 120 106 77
12.824645 -2.563226 10.506458 128 113 90
12.874496 -2.567049 10.452170 98 85 69
12.957766 -2.578355 10.419129 113 104 95
13.558327 -2.697573 10.622165 240 233 225
13.704837 -2.722564 10.623748 230 226 214
13.762421 -2.727725 10.569775 231 227 216
13.821457 -2.733198 10.516567 228 226 214
13.885167 -2.739691 10.466020 228 226 214
13.939109 -2.744018 10.409515 227 225 213
13.996936 -2.749193 10.355221 226 224 212
14.060313 -2.755574 10.304021 225 223 211
14.124315 -2.762077 10.252999 224 222 210
14.194927 -2.770003 10.205526 224 222 210
14.254269 -2.775457 10.151491 224 222 210
14.303004 -2.778601 10.091475 224 222 210
14.361691 -2.783898 10.036901 223 221 209
14.417121 -2.788483 9.980459 222 220 208
14.476927 -2.794004 9.926281 222 220 208
14.538520 -2.799898 9.872922 221 219 207
14.602151 -2.806216 9.820482 222 218 207
14.662416 -2.811800 9.766138 222 219 210
14.718986 -2.816587 9.709785 220 220 210
14.785698 -2.823523 9.658463 221 218 209
14.846099 -2.829103 9.603798 225 223 211
14.900884 -2.833484 9.546246 209 205 193
14.958507 -2.838459 9.490017 220 218 206
15.021824 -2.844627 9.436438 217 217 209
15.084919 -2.850734 9.382599 219 216 207
15.145709 -2.856346 9.327529 219 216 207
15.206144 -2.861873 9.272174 220 217 208
15.269726 -2.868047 9.218143 219 216 207
15.330031 -2.873526 9.162481 219 216 207
15.387632 -2.878433 9.105496 219 216 207
15.450297 -2.884383 9.050667 220 217 208
15.508615 -2.889422 8.993804 220 217 208
15.577404 -2.896616 8.941366 220 217 208
15.647406 -2.904042 8.889246 221 219 207
15.714650 -2.910883 8.835756 223 221 208
15.801854 -2.921803 8.790370 223 223 211
15.876171 -2.930052 8.739317 219 219 209
15.939199 -2.935975 8.683449 220 220 212
16.008228 -2.943110 8.629848 222 222 214
16.075974 -2.949967 8.575552 220 220 210
16.160591 -2.960233 8.527645 221 223 212
16.240509 -2.969517 8.477588 219 220 212
16.299582 -2.974566 8.419340 221 222 214
16.417965 -2.991563 8.383182 234 234 226
16.539114 -3.009058 8.347368 196 196 188
16.624681 -3.019353 8.297915 225 225 215
16.710093 -3.029588 8.248069 228 226 213
16.791502 -3.038994 8.196474 227 225 210
16.836586 -3.041130 8.131907 223 221 209
16.908768 -3.048666 8.076734 224 222 210
16.970829 -3.054174 8.017927 224 222 210
17.050436 -3.063152 7.964895 222 220 208
17.141722 -3.074417 7.915452 221 219 207
17.193718 -3.077894 7.852859 221 219 207
17.270441 -3.086243 7.798192 221 218 209
17.355602 -3.096232 7.745961 221 218 209
17.434040 -3.104875 7.691329 221 218 209
17.512571 -3.113516 7.636483 221 218 209
17.579588 -3.119885 7.577920 222 219 210
17.655884 -3.128053 7.521984 218 218 208
17.736898 -3.137121 7.467214 217 217 207
17.818123 -3.146209 7.412247 220 217 208
17.898928 -3.155193 7.356905 219 216 207
17.969061 -3.162090 7.298330 218 215 206
18.030863 -3.167365 7.237308 217 217 207
18.104679 -3.174949 7.179460 218 218 208
18.180910 -3.182982 7.122071 217 217 207
18.297232 -3.198697 7.074985 217 217 209
6.798691 -2.020231 16.957973 212 212 202
6.848957 -2.025042 16.915098 213 213 203
6.898879 -2.029714 16.871227 213 213 203
6.942901 -2.032333 16.814278 215 215 205
6.989419 -2.035813 16.762764 217 214 205
7.041261 -2.041104 16.722548 216 214 202
7.090535 -2.045499 16.676613 207 205 192
7.139251 -2.049692 16.629337 217 215 202
7.189316 -2.054325 16.584702 215 212 203
7.242130 -2.059859 16.545485 217 215 203
7.293986 -2.065049 16.504013 216 214 202
7.344249 -2.069690 16.459076 220 218 206
7.392536 -2.073665 16.410019 214 212 200
7.445609 -2.079197 16.370247 215 213 201
7.498396 -2.084610 16.329613 216 214 202
7.552363 -2.090381 16.290956 216 213 204
7.605906 -2.095989 16.251163 216 214 202
7.656513 -2.100631 16.205536 216 213 204
7.707868 -2.105495 16.161114 214 214 204
7.758756 -2.110193 16.115616 215 215 205
7.811898 -2.115589 16.074047 215 215 205
7.865293 -2.121041 16.032661 216 216 204
7.916801 -2.125880 15.987621 215 215 203
7.969279 -2.131005 15.944098 205 205 193
8.024460 -2.136948 15.905084 219 217 205
8.079107 -2.142701 15.864821 216 214 202
8.132005 -2.147891 15.821246 216 214 202
8.185167 -2.153142 15.777888 216 214 202
8.234133 -2.157097 15.727212 216 214 202
8.284345 -2.161421 15.678520 217 215 203
8.337593 -2.166650 15.634713 218 216 204
8.390216 -2.171672 15.589652 218 216 204
8.440693 -2.176035 15.540903 217 215 203
8.491354 -2.180442 15.492315 217 215 203
8.544341 -2.185528 15.447285 218 216 204
8.595554 -2.190072 15.399255 219 217 205
8.648284 -2.195050 15.353435 220 218 206
8.702855 -2.200550 15.310260 219 217 205
8.750625 -2.204048 15.256448 219 217 205
8.798393 -2.207543 15.202596 220 218 206
8.849371 -2.211962 15.153509 221 219 207
8.898640 -2.215878 15.101758 222 220 208
8.946951 -2.219513 15.048516 222 220 208
8.997518 -2.223788 14.998504 223 221 209
9.047209 -2.227804 14.947115 223 221 209
9.099825 -2.232640 14.899810 224 222 210
9.150445 -2.236901 14.849516 225 223 211
9.202950 -2.241681 14.801747 226 224 212
9.255507 -2.246462 14.753889 227 223 212
9.302383 -2.249648 14.698080 227 225 213
9.345992 -2.251927 14.637826 161 161 149
9.390011 -2.254326 14.578203 226 224 212
9.438266 -2.257897 14.524292 190 184 170
9.481814 -2.260173 14.464128 233 226 208
9.510570 -2.258415 14.384715 232 223 208
9.535659 -2.255696 14.301006 73 64 49
9.563949 -2.253888 14.221936 78 66 54
9.594572 -2.252748 14.146278 79 67 55
9.629220 -2.252723 14.076061 71 59 45
9.668962 -2.254086 14.012466 109 95 82
9.714511 -2.257013 13.956185 112 98 85
9.767708 -2.261977 13.909256 108 96 84
9.834930 -2.270647 13.879120 62 49 40
9.893648 -2.277029 13.838309 60 47 38
9.952125 -2.283324 13.796924 62 52 42
10.011086 -2.289723 13.755832 65 55 45
10.063084 -2.294279 13.706354 69 56 47
10.110401 -2.297605 13.651362 68 55 46
10.164171 -2.302605 13.603713 66 53 44
10.212919 -2.306293 13.550229 61 51 41
10.252545 -2.307625 13.486491 54 44 35
10.291299 -2.308745 13.421937 48 38 29
10.322738 -2.308007 13.349521 110 96 85
10.342316 -2.304269 13.264535 108 92 79
10.367905 -2.302106 13.186583 105 93 79
10.423453 -2.307570 13.140990 27 22 18
10.489940 -2.315780 13.106750 23 18 12
10.553578 -2.323239 13.069119 118 103 98
10.616212 -2.330417 13.030096 113 95 83
10.682129 -2.338390 12.994113 103 89 78
10.751173 -2.347110 12.960916 61 54 36
10.811614 -2.353657 12.918628 70 61 44
10.858263 -2.356766 12.862341 75 61 48
10.900721 -2.358841 12.801925 75 61 50
10.931368 -2.358016 12.730061 78 64 53
10.974382 -2.360250 12.670457 78 66 52
11.019580 -2.363024 12.613012 75 66 51
11.064054 -2.365623 12.554908 78 66 50
11.116291 -2.370111 12.504127 80 67 51
11.185575 -2.378719 12.469086 82 66 51
11.240595 -2.383850 12.420506 82 66 51
11.285540 -2.386543 12.362595 82 66 51
11.339769 -2.391467 12.313094 83 67 52
11.385496 -2.394345 12.255863 83 67 52
11.437380 -2.398694 12.204099 84 68 53
11.494012 -2.404165 12.156401 84 68 53
11.534343 -2.405756 12.094400 82 69 53
11.574230 -2.407253 12.032130 81 68 52
11.615127 -2.408996 11.970836 80 64 49
11.662589 -2.412291 11.915166 75 61 48
11.722368 -2.418471 11.869745 67 53 42
11.758210 -2.419041 11.804366 71 57 46
11.796623 -2.420224 11.741267 76 59 49
11.828562 -2.419916 11.673071 72 55 45
11.865468 -2.420777 11.609090 71 58 49
11.918078 -2.425278 11.557707 18 13 9
11.982095 -2.432397 11.515172 50 40 31
12.049579 -2.440289 11.475055 52 41 39
12.110428 -2.446636 11.429513 53 46 36
12.182033 -2.455420 11.391932 58 43 36
12.256967 -2.464931 11.356476 68 54 45
12.322580 -2.472291 11.313644 73 61 45
12.358625 -2.472932 11.248722 78 65 48
12.401034 -2.475024 11.188613 80 64 51
12.447270 -2.477984 11.131340 82 66 53
12.489476 -2.480039 11.071198 80 67 51
12.540906 -2.484167 11.017654 76 62 49
12.574960 -2.484408 10.951878 65 51 40
12.609216 -2.484709 10.886432 75 58 48
12.664201 -2.489631 10.835386 71 55 39
12.730975 -2.497156 10.792229 76 60 44
12.801580 -2.505505 10.751362 70 54 41
12.870038 -2.513353 10.708737 82 68 55
12.958108 -2.525488 10.678710 80 67 51
13.038858 -2.535972 10.643353 62 49 41
13.120499 -2.546612 10.608109 122 112 110
13.242642 -2.566050 10.598192 141 136 132
13.413119 -2.595922 10.617716 147 143 144
13.624111 -2.634450 10.660839 239 235 226
13.703974 -2.644413 10.620930 231 227 215
13.763223 -2.649890 10.568037 230 226 215
13.818301 -2.654458 10.512493 229 227 215
13.882943 -2.661074 10.462581 227 225 213
13.937398 -2.665491 10.406452 227 225 213
13.994127 -2.670388 10.351583 226 224 212
14.057209 -2.676632 10.300288 226 224 211
14.121582 -2.683136 10.249554 226 224 212
14.188909 -2.690252 10.200297 224 222 210
14.246003 -2.695183 10.145101 224 222 210
14.295919 -2.698590 10.085846 223 221 209
14.353778 -2.703669 10.030920 222 220 208
14.407273 -2.707824 9.973537 222 220 208
14.465484 -2.712962 9.918621 222 220 208
14.526797 -2.718742 9.865238 221 219 207
14.590139 -2.724933 9.812771 221 217 206
14.650469 -2.730483 9.758585 221 218 209
14.707470 -2.735331 9.702577 220 220 210
14.773528 -2.742050 9.651046 221 218 209
14.837806 -2.748384 9.598436 219 217 205
14.891868 -2.752597 9.540628 219 215 203
14.950686 -2.757785 9.485085 220 218 206
15.011159 -2.763305 9.430236 217 217 209
15.073692 -2.769236 9.376242 219 216 207
15.134234 -2.774749 9.321172 219 216 207
15.195499 -2.780400 9.266317 220 217 208
15.261938 -2.787092 9.213706 220 217 208
15.323077 -2.792694 9.158514 220 217 208
15.380304 -2.797493 9.101451 219 216 207
15.445371 -2.803870 9.047771 220 217 208
15.504008 -2.808938 8.991125 221 218 209
15.571709 -2.815821 8.938293 220 217 208
15.638737 -2.822555 8.884987 221 219 207
15.703623 -2.828844 8.830601 223 221 208
15.786986 -2.838814 8.783728 225 225 213
15.860187 -2.846729 8.732344 219 219 209
15.924809 -2.852916 8.677253 221 221 213
15.989670 -2.859139 8.622110 224 224 216
16.064440 -2.867315 8.570726 221 221 211
16.128204 -2.873292 8.514814 187 188 182
16.200085 -2.880861 8.461884 151 153 150
16.694824 -2.944876 8.242639 224 222 210
16.780897 -2.955054 8.192816 225 223 210
16.823561 -2.956760 8.127501 222 222 210
16.898245 -2.964689 8.073299 222 222 210
16.955217 -2.969169 8.012862 223 221 209
17.032684 -2.977607 7.959235 222 219 210
17.118711 -2.987676 7.908187 221 218 209
17.179892 -2.992934 7.848735 220 217 208
17.257648 -3.001371 7.794510 219 219 209
17.340782 -3.010819 7.741742 218 218 208
17.419376 -3.019374 7.687273 221 218 209
17.499462 -3.028194 7.633018 218 218 208
17.568419 -3.034872 7.575146 218 218 208
17.644835 -3.042957 7.519340 218 218 208
17.726765 -3.052070 7.464933 218 218 208
17.806618 -3.060768 7.409661 217 217 207
17.883562 -3.068896 7.353319 217 217 207
17.958933 -3.076709 7.296319 218 215 206
18.020630 -3.081929 7.235357 217 217 207
18.091553 -3.088878 7.176814 218 218 208
18.160446 -3.095432 7.117572 217 217 209
18.280260 -3.111515 7.071536 216 216 208
6.802169 -1.948784 16.950134 212 212 202
6.853347 -1.953855 16.909391 213 213 203
6.901906 -1.958025 16.862602 213 213 203
6.948241 -1.961438 16.810810 215 215 205
6.993975 -1.964649 16.757675 216 213 204
7.046276 -1.970026 16.718506 209 207 195
7.094646 -1.974087 16.670731 213 211 198
7.142319 -1.977909 16.621365 213 211 198
7.192588 -1.982567 16.577253 216 214 202
7.244287 -1.987670 16.535851 216 214 202
7.295512 -1.992600 16.493221 217 215 203
7.346109 -1.997309 16.449085 221 217 206
7.396381 -2.001898 16.404095 215 211 200
7.449141 -2.007259 16.363781 216 214 202
7.501629 -2.012512 16.322651 216 214 202
7.556147 -2.018379 16.285141 216 214 202
7.610049 -2.024027 16.246109 215 213 201
7.659420 -2.028242 16.198231 216 213 204
7.710781 -2.033060 16.153912 215 215 205
7.762443 -2.037954 16.109936 215 215 205
7.814750 -2.043029 16.066917 215 215 205
7.868248 -2.048447 16.025810 216 216 204
7.920368 -2.053425 15.981956 215 215 203
7.972964 -2.058529 15.938718 201 201 189
8.027400 -2.064166 15.898469 221 219 207
8.082955 -2.070116 15.859866 216 214 202
8.136039 -2.075302 15.816680 217 215 203
8.188103 -2.080168 15.771518 217 215 203
8.236819 -2.084030 15.720510 218 216 204
8.287560 -2.088479 15.672796 218 216 204
8.340026 -2.093421 15.627772 218 216 204
8.392600 -2.098378 15.582722 217 215 203
8.443475 -2.102826 15.534712 218 216 204
8.493942 -2.107144 15.485899 217 215 203
8.546395 -2.112023 15.440105 218 216 204
8.597951 -2.116630 15.392707 218 216 204
8.651733 -2.121858 15.348614 219 217 205
8.706277 -2.127284 15.305465 218 216 204
8.754840 -2.131001 15.252939 219 217 205
8.803434 -2.134722 15.200398 220 218 206
8.854500 -2.139130 15.151491 220 218 206
8.903315 -2.142899 15.099112 222 220 208
8.951180 -2.146399 15.045270 222 220 208
9.002139 -2.150752 14.995887 222 220 208
9.051566 -2.154672 14.944170 223 221 209
9.104412 -2.159525 14.897244 224 222 210
9.155807 -2.163967 14.848095 225 223 211
9.209146 -2.168929 14.801532 226 224 212
9.259857 -2.173162 14.751144 228 224 212
9.307430 -2.176540 14.696348 233 229 217
9.353130 -2.179410 14.638983 153 151 138
9.397107 -2.181821 14.579325 228 225 210
9.444537 -2.185159 14.524333 178 172 156
9.491910 -2.188481 14.469246 233 226 208
9.534799 -2.190612 14.408282 227 220 204
9.569892 -2.190692 14.337333 191 183 172
9.603395 -2.190376 14.264634 84 74 64
9.635113 -2.189617 14.189994 83 71 59
9.668891 -2.189425 14.118302 77 63 50
9.710298 -2.191242 14.056406 108 92 77
9.761968 -2.195731 14.007274 105 92 76
9.819416 -2.201701 13.965064 97 85 71
9.888297 -2.210595 13.936406 63 53 41
9.948680 -2.217267 13.897057 63 55 44
10.009298 -2.223974 13.857665 66 57 48
10.070432 -2.230787 13.818556 71 61 52
10.124496 -2.235780 13.770904 72 62 53
10.172360 -2.239191 13.715946 71 61 52
10.224488 -2.243676 13.665828 70 60 51
10.273383 -2.247339 13.611938 66 57 50
10.313128 -2.248707 13.547772 59 50 43
10.350496 -2.249495 13.481127 50 41 34
10.373028 -2.246611 13.398410 94 79 72
10.384333 -2.240985 13.304013 92 75 65
10.405574 -2.237871 13.221045 85 73 59
10.455935 -2.241966 13.169620 27 20 14
10.516460 -2.248548 13.128832 26 19 11
10.580724 -2.256021 13.091660 102 85 75
10.645687 -2.263636 13.054850 107 91 75
10.709675 -2.270984 13.016668 96 87 72
10.790382 -2.282353 12.995104 74 61 52
10.862128 -2.291507 12.963864 77 64 55
10.926345 -2.298810 12.924646 76 63 54
10.980618 -2.303703 12.875298 79 67 55
11.023865 -2.305948 12.815049 81 69 55
11.070317 -2.308964 12.757971 81 69 55
11.113398 -2.311179 12.697677 81 67 56
11.159453 -2.314104 12.640274 81 66 59
11.207510 -2.317503 12.584765 82 68 59
11.273832 -2.325200 12.546204 80 67 58
11.338685 -2.332524 12.505938 79 66 57
11.388989 -2.336419 12.452100 79 67 55
11.445684 -2.341800 12.403970 78 66 54
11.502732 -2.347250 12.355985 80 68 56
11.555369 -2.351664 12.303926 80 68 56
11.606822 -2.355796 12.250736 81 69 57
11.653831 -2.358899 12.193624 81 68 59
11.704274 -2.362791 12.139461 78 65 56
11.749127 -2.365398 12.080495 76 63 54
11.792462 -2.367662 12.020295 70 60 50
11.828333 -2.368231 11.953944 63 53 41
11.842878 -2.363971 11.870201 67 53 40
11.863707 -2.361177 11.792126 118 102 86
11.889342 -2.359503 11.718364 119 102 84
11.930595 -2.361372 11.657440 127 109 95
11.981264 -2.365363 11.604063 17 12 9
12.045197 -2.372318 11.561022 92 78 69
12.109260 -2.379282 11.517812 108 91 81
12.178638 -2.387407 11.478415 113 101 79
12.274091 -2.401295 11.458495 71 61 51
12.372179 -2.415707 11.439811 69 60 53
12.447089 -2.424939 11.403082 70 61 46
12.492512 -2.427645 11.344195 73 61 49
12.528332 -2.428244 11.278334 72 59 51
12.566431 -2.429356 11.214294 71 58 49
12.604764 -2.430531 11.150564 63 53 41
12.650911 -2.433419 11.092497 55 45 33
12.683299 -2.433318 11.024816 56 42 33
12.721881 -2.434577 10.961645 107 90 80
12.769031 -2.437699 10.904476 132 115 99
12.841572 -2.446294 10.864538 135 116 101
12.953257 -2.463277 10.850522 85 73 61
13.085677 -2.484636 10.849378 77 67 57
13.207261 -2.503582 10.839923 77 67 58
13.301551 -2.516626 10.811697 100 92 90
13.377130 -2.525636 10.770796 108 107 105
13.441494 -2.532238 10.722384 116 115 111
13.527047 -2.543309 10.687105 157 156 154
13.631465 -2.558324 10.663083 237 233 224
13.700577 -2.565843 10.616553 231 227 215
13.759261 -2.571149 10.563396 230 226 215
13.815618 -2.575958 10.508710 230 228 216
13.884509 -2.583380 10.461406 227 225 213
13.938952 -2.587768 10.405319 227 225 213
13.995255 -2.592537 10.350248 226 224 212
14.058359 -2.598711 10.299015 225 223 210
14.122807 -2.605150 10.248372 225 223 211
14.188951 -2.611924 10.198495 224 222 210
14.243963 -2.616387 10.142192 224 222 210
14.296172 -2.620268 10.084271 224 222 210
14.350528 -2.624587 10.027488 223 221 209
14.402827 -2.628480 9.969534 222 220 208
14.462908 -2.633959 9.915698 221 219 207
14.520997 -2.639022 9.860683 221 219 207
14.582066 -2.644682 9.807119 222 218 207
14.642622 -2.650228 9.753153 221 218 209
14.699260 -2.654971 9.697059 219 219 209
14.764587 -2.661461 9.645260 221 218 209
14.830506 -2.668055 9.593573 218 214 203
14.885858 -2.672512 9.536495 212 208 196
14.947489 -2.678222 9.482407 220 218 206
15.004936 -2.683084 9.426172 218 218 210
15.066070 -2.688676 9.371601 218 215 206
15.125941 -2.694006 9.316310 218 215 206
15.188892 -2.699939 9.262335 219 216 207
15.258387 -2.707157 9.211211 219 216 207
15.319588 -2.712718 9.156117 219 216 207
15.375411 -2.717208 9.098495 219 216 207
15.439815 -2.723382 9.044601 220 217 208
15.498896 -2.728499 8.988229 220 217 208
15.564773 -2.734940 8.934687 220 217 208
15.623607 -2.739990 8.877979 220 218 206
15.690198 -2.746547 8.824440 224 222 209
15.775876 -2.756807 8.778646 226 226 214
15.854093 -2.765589 8.729424 223 223 213
15.927087 -2.773334 8.677797 219 219 211
15.993130 -2.779715 8.623164 229 229 221
16.013783 -2.777319 8.550484 197 199 188
16.629377 -2.850861 8.219198 227 224 215
16.763014 -2.869931 8.186581 228 224 213
16.823030 -2.874982 8.127459 223 223 213
16.897621 -2.882783 8.073273 221 223 212
16.958435 -2.887966 8.014189 221 221 211
17.033539 -2.895835 7.959801 220 220 210
17.113770 -2.904650 7.906882 220 220 210
17.176960 -2.910246 7.848152 218 218 210
17.253706 -2.918373 7.793662 219 219 211
17.334417 -2.927222 7.740194 218 219 211
17.414967 -2.936021 7.686408 219 219 211
17.496216 -2.944928 7.632574 218 218 210
17.563641 -2.951246 7.574299 217 218 210
17.638908 -2.959008 7.518219 216 217 209
17.721130 -2.968040 7.463969 216 217 209
17.794954 -2.975500 7.407027 216 217 209
17.869850 -2.983142 7.350199 217 217 209
17.942579 -2.990370 7.292566 217 217 209
18.002270 -2.995188 7.231167 216 216 206
18.072773 -3.001984 7.172635 218 218 208
18.133976 -3.007066 7.111469 217 217 209
18.259024 -3.023805 7.066964 216 216 208
6.804669 -1.877124 16.940125 211 211 201
6.854171 -1.881591 16.895782 211 211 201
6.904291 -1.886243 16.852589 214 214 204
6.949449 -1.889274 16.798374 214 214 204
6.994292 -1.892205 16.743483 217 215 203
7.046835 -1.897596 16.704994 201 199 187
7.094687 -1.901472 16.656294 220 218 206
7.142353 -1.905280 16.607090 215 213 201
7.192451 -1.909844 16.562796 216 214 202
7.244018 -1.914853 16.521290 216 214 202
7.295226 -1.919730 16.478796 216 214 202
7.347006 -1.924765 16.437197 224 222 210
7.398999 -1.929846 16.395752 214 212 200
7.451829 -1.935163 16.355686 216 214 202
7.504681 -1.940464 16.315357 217 215 203
7.558781 -1.946122 16.277138 216 214 202
7.612452 -1.951625 16.237762 215 213 201
7.661163 -1.955613 16.188747 217 215 203
7.711975 -1.960220 16.143528 217 215 203
7.764171 -1.965225 16.100662 218 216 204
7.815991 -1.970100 16.056870 217 215 203
7.869761 -1.975533 16.016369 219 217 205
7.921998 -1.980494 15.972839 218 216 204
7.974563 -1.985534 15.929662 195 193 181
8.028200 -1.990867 15.888120 221 219 207
8.083241 -1.996587 15.848745 216 214 202
8.137209 -2.001972 15.807209 215 213 201
8.188507 -2.006571 15.760859 217 215 203
8.239026 -2.010934 15.713020 216 214 202
8.290079 -2.015437 15.665922 219 217 205
8.341100 -2.019918 15.618605 219 217 205
8.392728 -2.024559 15.572121 217 215 203
8.444363 -2.029188 15.525469 217 215 203
8.494617 -2.033418 15.476432 217 215 203
8.547081 -2.038254 15.430772 218 216 204
8.599469 -2.043053 15.384797 219 217 205
8.653497 -2.048291 15.341183 220 218 206
8.707596 -2.053531 15.297441 220 218 206
8.754845 -2.056877 15.243019 220 218 206
8.804063 -2.060759 15.191545 222 220 208
8.855781 -2.065312 15.143724 221 219 207
8.904408 -2.069018 15.091173 222 220 208
8.952440 -2.072559 15.037681 222 220 208
9.005186 -2.077361 14.990991 222 220 208
9.054539 -2.081243 14.939242 222 220 208
9.106844 -2.085904 14.891619 224 222 210
9.158895 -2.090486 14.843475 225 223 211
9.214354 -2.095956 14.799939 226 224 212
9.264291 -2.099956 14.748525 228 226 214
9.310780 -2.103045 14.692297 230 228 216
9.357106 -2.106092 14.635852 150 148 135
9.401752 -2.108703 14.577156 241 239 226
9.448265 -2.111801 14.520995 197 194 179
9.495574 -2.115105 14.465883 227 224 209
9.542124 -2.118212 14.409765 231 225 209
9.584510 -2.120253 14.348267 227 221 205
9.623173 -2.121351 14.282106 130 120 108
9.658460 -2.121607 14.211864 87 77 65
9.693342 -2.121780 14.141388 80 70 60
9.735435 -2.123795 14.080156 80 70 60
9.789211 -2.128756 14.033413 83 73 64
9.847038 -2.134719 13.991434 81 71 62
9.914279 -2.143012 13.960557 66 56 46
9.975595 -2.149794 13.922110 68 58 48
10.034576 -2.155971 13.880556 72 59 51
10.092167 -2.161784 13.837091 77 64 56
10.145048 -2.166418 13.787910 75 64 58
10.194480 -2.170196 13.734623 76 65 59
10.245811 -2.174434 13.683442 74 63 57
10.295292 -2.178213 13.630074 70 59 53
10.338886 -2.180558 13.570069 68 57 51
10.376623 -2.181491 13.503653 59 49 40
10.398967 -2.178725 13.420559 102 89 80
10.412799 -2.173952 13.328742 101 89 77
10.434766 -2.171180 13.246360 98 88 76
10.479593 -2.173908 13.188827 33 24 17
10.535479 -2.179270 13.142983 27 18 13
10.597534 -2.186082 13.103389 112 100 88
10.656220 -2.192074 13.059994 117 106 88
10.723019 -2.199959 13.024662 117 105 89
10.814861 -2.213700 13.014323 77 64 55
10.894600 -2.224538 12.990941 80 67 59
10.950729 -2.229813 12.943439 79 69 60
11.004426 -2.234509 12.893366 82 72 63
11.052363 -2.237858 12.837548 82 72 62
11.101321 -2.241443 12.782701 82 72 62
11.150427 -2.245059 12.727960 84 71 63
11.203975 -2.249693 12.677386 84 71 63
11.254704 -2.253672 12.624051 82 72 63
11.319494 -2.260860 12.583704 82 72 63
11.385666 -2.268338 12.544306 82 72 63
11.436541 -2.272315 12.490642 83 73 64
11.487601 -2.276330 12.437079 82 72 63
11.544165 -2.281581 12.388363 82 72 63
11.599495 -2.286544 12.338394 82 72 63
11.651758 -2.290807 12.285604 83 73 64
11.700900 -2.294365 12.230024 82 72 62
11.752634 -2.298499 12.176639 81 71 61
11.799656 -2.301579 12.119179 77 67 57
11.841799 -2.303577 12.057624 74 64 54
11.871295 -2.302784 11.985631 70 58 46
11.880076 -2.297443 11.896866 72 58 45
11.896122 -2.293749 11.814662 126 110 94
11.921751 -2.292195 11.740707 121 104 86
11.962600 -2.293998 11.679271 118 105 97
12.016032 -2.298553 11.627892 22 14 11
12.074803 -2.304261 11.580592 108 98 88
12.130265 -2.309238 11.530540 109 97 83
12.207373 -2.318887 11.496975 115 102 85
12.321907 -2.336577 11.491386 71 59 45
12.432199 -2.353275 11.481566 76 66 57
12.509986 -2.362924 11.446579 80 67 59
12.570220 -2.368782 11.398197 79 69 59
12.615899 -2.371519 11.339011 78 68 58
12.657653 -2.373423 11.277023 76 66 56
12.693232 -2.374023 11.210713 71 61 51
12.729269 -2.374733 11.144910 66 54 42
12.754357 -2.373144 11.071614 62 48 37
12.789381 -2.373673 11.005528 112 96 81
12.834134 -2.376260 10.946294 122 105 89
12.907410 -2.384827 10.906445 119 103 87
13.042396 -2.406266 10.907649 81 71 59
13.211064 -2.434634 10.929994 88 79 70
13.311502 -2.448685 10.905814 92 85 77
13.383620 -2.456807 10.862502 101 97 94
13.439361 -2.461515 10.808330 109 108 106
13.491589 -2.465491 10.751827 115 115 113
13.556458 -2.472066 10.703238 114 114 112
13.635458 -2.481527 10.663235 236 232 223
13.702332 -2.488474 10.615356 234 228 214
13.761038 -2.493732 10.562260 232 226 212
13.817179 -2.498458 10.507488 231 225 213
13.886412 -2.505840 10.460435 228 224 213
13.941094 -2.510250 10.404534 228 224 215
13.997023 -2.514907 10.349291 227 225 213
14.058413 -2.520660 10.297112 225 223 210
14.118383 -2.526115 10.243969 225 223 211
14.181361 -2.532164 10.192388 224 222 210
14.240150 -2.537361 10.138296 224 222 210
14.293118 -2.541384 10.080874 223 221 209
14.347013 -2.545589 10.023913 223 221 209
14.401822 -2.549972 9.967392 222 220 208
14.461581 -2.555333 9.913445 221 219 207
14.517442 -2.559912 9.857317 221 219 207
14.575695 -2.564958 9.802359 222 218 207
14.634712 -2.570147 9.747690 222 219 210
14.690537 -2.574699 9.691282 220 220 210
14.755696 -2.581078 9.639503 221 219 207
14.822367 -2.587740 9.588293 222 218 207
14.879184 -2.592460 9.532037 219 215 203
14.941860 -2.598317 9.478548 222 218 207
14.997973 -2.602886 9.421755 219 216 207
15.053955 -2.607423 9.364829 219 216 207
15.116450 -2.613217 9.310888 219 216 207
15.183054 -2.619795 9.258711 220 217 208
15.255310 -2.627448 9.208936 220 217 208
15.314393 -2.632548 9.152950 219 216 207
15.369061 -2.636792 9.094891 219 216 207
15.429886 -2.642212 9.039500 220 217 208
15.488968 -2.647290 8.983232 222 220 208
15.554652 -2.653620 8.929710 220 217 208
15.612957 -2.658532 8.872881 221 219 207
15.674131 -2.663983 8.817171 224 222 210
15.761189 -2.674332 8.772081 228 226 213
15.833923 -2.681943 8.720738 226 224 212
15.887845 -2.685984 8.661554 220 220 212
15.850569 -2.672839 8.565926 156 157 152
11.197565 -1.779315 6.486276 60 63 68
11.260383 -1.786886 6.455100 104 107 112
16.619987 -2.767982 8.215877 225 223 211
16.758110 -2.787480 8.184940 225 223 211
16.829288 -2.794556 8.129786 223 223 211
16.895918 -2.800778 8.072874 222 222 210
16.961369 -2.806773 8.015419 221 221 211
17.036911 -2.814610 7.961209 223 220 211
17.116810 -2.823228 7.908212 221 218 209
17.169462 -2.826845 7.846085 219 219 209
17.247276 -2.835052 7.792017 218 218 208
17.327032 -2.843595 7.738322 219 219 209
17.409286 -2.852572 7.685146 218 218 208
17.488119 -2.860906 7.630643 218 218 208
17.553658 -2.866816 7.571879 218 218 208
17.629669 -2.874609 7.516110 217 217 207
17.711153 -2.883373 7.461730 217 217 207
17.784773 -2.890701 7.404819 218 218 208
17.858837 -2.898095 7.347845 218 218 208
17.936468 -2.906114 7.291676 216 216 206
17.993706 -2.910465 7.229671 217 217 207
18.066101 -2.917522 7.171733 217 217 207
18.120922 -2.921431 7.108937 217 217 207
18.245358 -2.937732 7.064375 216 216 206
6.806507 -1.805384 16.928658 211 211 201
6.854340 -1.809286 16.880756 212 212 202
6.904935 -1.814045 16.838783 212 212 202
6.950737 -1.817291 16.786146 214 214 204
6.995025 -1.820063 16.730221 212 210 198
7.046167 -1.824955 16.688908 195 193 181
7.093905 -1.828781 16.640160 220 218 206
7.142825 -1.832960 16.593758 215 213 201
7.193204 -1.837571 16.550205 216 214 202
7.245149 -1.842639 16.509619 216 214 202
7.297718 -1.847875 16.470009 217 215 203
7.349545 -1.852866 16.428616 224 222 210
7.402761 -1.858253 16.389702 214 212 200
7.455230 -1.863393 16.348999 214 212 200
7.508601 -1.868780 16.309767 215 213 201
7.562064 -1.874171 16.270395 215 213 201
7.615465 -1.879521 16.230595 215 213 201
7.664505 -1.883581 16.182297 215 213 201
7.715773 -1.888276 16.138012 216 214 202
7.767927 -1.893211 16.095144 217 215 203
7.819759 -1.898036 16.051449 218 216 204
7.873558 -1.903406 16.011074 218 216 204
7.925255 -1.908157 15.966655 217 215 203
7.977585 -1.913073 15.923142 191 189 177
8.031089 -1.918301 15.881452 222 220 208
8.086446 -1.924030 15.842706 216 214 202
8.140562 -1.929389 15.801506 218 216 204
8.191446 -1.933830 15.754533 219 217 205
8.242336 -1.938260 15.707404 220 218 206
8.293667 -1.942800 15.660847 219 217 205
8.345226 -1.947389 15.614493 218 216 204
8.396805 -1.951972 15.567990 218 216 204
8.448775 -1.956648 15.521947 218 216 204
8.498598 -1.960729 15.472278 218 216 204
8.550128 -1.965261 15.425200 218 216 204
8.601925 -1.969854 15.378374 219 217 205
8.655378 -1.974876 15.333953 220 218 206
8.709051 -1.979941 15.289647 220 218 206
8.757125 -1.983506 15.236588 219 217 205
8.807138 -1.987579 15.186403 220 218 206
8.858938 -1.992114 15.138781 221 219 207
8.907819 -1.995873 15.086678 221 219 207
8.956457 -1.999563 15.034148 220 218 206
9.008204 -2.004056 14.986065 222 220 208
9.058640 -2.008200 14.935949 223 221 209
9.111519 -2.012965 14.889198 225 223 211
9.163654 -2.017525 14.841221 225 223 211
9.220594 -2.023304 14.799796 226 224 212
9.270568 -2.027287 14.748461 229 227 215
9.314363 -2.029696 14.688576 232 230 218
9.357902 -2.032045 14.628417 133 131 119
9.403247 -2.034856 14.570765 224 222 209
9.449431 -2.037879 14.514259 231 227 215
9.495478 -2.040868 14.457581 229 226 211
9.544353 -2.044563 14.404604 231 225 209
9.591115 -2.047729 14.348840 231 225 209
9.634717 -2.050113 14.289028 241 234 218
9.675892 -2.051905 14.226217 88 81 65
9.715199 -2.053248 14.161193 84 76 63
9.757193 -2.055261 14.099680 76 66 56
9.807015 -2.059189 14.047909 79 69 60
9.863718 -2.064783 14.004442 78 68 59
9.927339 -2.072032 13.969083 72 62 52
9.987741 -2.078477 13.929481 70 60 50
10.044707 -2.084074 13.885494 75 65 55
10.097942 -2.088759 13.836898 76 66 56
10.149555 -2.093047 13.786272 76 66 56
10.200501 -2.097168 13.734770 76 67 58
10.250815 -2.101133 13.682457 75 66 57
10.302916 -2.105515 13.632080 73 63 54
10.349549 -2.108600 13.575484 70 60 51
10.389457 -2.110108 13.511452 68 55 46
10.418729 -2.109139 13.435917 84 71 62
10.433125 -2.104729 13.344616 79 69 59
10.458393 -2.102895 13.265672 80 71 62
10.499531 -2.104768 13.204057 35 27 24
10.551268 -2.109096 13.153719 32 24 22
10.614079 -2.115964 13.114830 83 74 65
10.670749 -2.121400 13.069265 85 75 63
10.730317 -2.127484 13.026464 85 73 61
10.818069 -2.139973 13.011967 78 68 56
10.902433 -2.151634 12.993263 81 71 61
10.961321 -2.157470 12.948506 82 72 62
11.014374 -2.161973 12.897778 84 74 64
11.065837 -2.166110 12.845385 84 74 64
11.115973 -2.169942 12.791628 84 74 64
11.164485 -2.173407 12.736260 84 74 64
11.219851 -2.178399 12.687356 85 75 65
11.271949 -2.182653 12.635235 84 74 64
11.336423 -2.189645 12.594507 86 76 66
11.401918 -2.196840 12.554405 86 76 66
11.454120 -2.201080 12.501878 87 77 67
11.503615 -2.204720 12.446826 87 77 67
11.555011 -2.208773 12.393431 87 77 67
11.609726 -2.213546 12.342896 86 76 66
11.664980 -2.218428 12.292706 86 76 66
11.714441 -2.222041 12.237364 88 76 64
11.769393 -2.226841 12.186695 87 75 63
11.822418 -2.231215 12.134263 84 71 62
11.867182 -2.233804 12.074794 80 67 58
11.899757 -2.233778 12.005231 75 62 53
11.904142 -2.227734 11.912693 73 61 49
11.916659 -2.223477 11.827497 89 75 64
11.943738 -2.222363 11.754622 90 76 63
11.988070 -2.224937 11.695863 65 56 49
12.044044 -2.229979 11.646358 35 26 19
12.097077 -2.234390 11.594406 81 70 64
12.150150 -2.238802 11.542392 79 66 58
12.224745 -2.247729 11.506802 77 64 55
12.346704 -2.266547 11.506767 81 68 59
12.465295 -2.284578 11.503046 85 72 63
12.541814 -2.293763 11.466920 80 70 60
12.611490 -2.301494 11.425317 85 72 63
12.670055 -2.306897 11.375283 84 71 63
12.718463 -2.310189 11.317760 80 70 61
12.754536 -2.310938 11.251421 77 67 58
12.777534 -2.309010 11.176014 71 58 49
12.789580 -2.304862 11.093311 63 51 39
12.820646 -2.304643 11.024297 96 82 69
12.866007 -2.307360 10.965317 96 83 67
12.935507 -2.314992 10.922737 86 74 60
13.078012 -2.337427 10.928831 90 80 68
13.249759 -2.365687 10.953006 97 88 79
13.331261 -2.375589 10.916169 97 92 86
13.396173 -2.382114 10.868093 101 97 94
13.448898 -2.386173 10.811956 107 105 106
13.505592 -2.391025 10.758290 111 111 111
13.570287 -2.397469 10.709555 115 115 115
13.646323 -2.406160 10.667668 223 220 213
13.708280 -2.412023 10.616744 230 226 215
13.765266 -2.416886 10.562618 230 226 214
13.822780 -2.421845 10.508706 227 223 211
13.890156 -2.428746 10.460564 228 224 213
13.944843 -2.433128 10.404700 228 224 215
14.002068 -2.438004 10.350245 226 224 212
14.063547 -2.443707 10.298142 225 223 210
14.121840 -2.448775 10.244064 224 222 210
14.183737 -2.454539 10.191907 223 221 209
14.243863 -2.459946 10.138603 223 221 209
14.296306 -2.463850 10.080925 223 221 209
14.352182 -2.468417 10.025082 223 221 209
14.405351 -2.472454 9.967697 221 219 207
14.462531 -2.477262 9.912408 220 218 206
14.516465 -2.481438 9.855311 220 218 206
14.574087 -2.486319 9.800085 221 217 206
14.631371 -2.491128 9.744587 221 218 209
14.688031 -2.495811 9.688677 219 219 209
14.750964 -2.501686 9.635843 221 219 207
14.815875 -2.507926 9.583838 222 218 206
14.869542 -2.512016 9.526121 220 216 204
14.931770 -2.517725 9.472521 222 218 207
14.987766 -2.522246 9.415783 219 216 207
15.043671 -2.526743 9.358929 219 217 205
15.106682 -2.532575 9.305340 219 216 207
15.174137 -2.539232 9.253662 219 216 207
15.246564 -2.546806 9.204063 219 216 207
15.305750 -2.551884 9.148225 220 217 208
15.360990 -2.556217 9.090519 220 217 208
15.423491 -2.561900 9.035962 220 217 208
15.479168 -2.566303 8.978292 221 219 207
15.543246 -2.572262 8.924180 221 218 209
15.606524 -2.578061 8.869577 222 219 210
15.664606 -2.582890 8.812651 224 222 210
15.743122 -2.591481 8.764116 228 226 213
15.803505 -2.596713 8.707857 226 224 212
15.811522 -2.592318 8.630317 221 221 213
11.219860 -1.732602 6.549713 64 68 71
11.162952 -1.718254 6.473071 79 82 87
11.177982 -1.717026 6.424238 107 110 117
11.255058 -1.727050 6.398481 113 112 117
16.747072 -2.704068 8.181128 223 223 213
16.822659 -2.711846 8.127612 223 223 211
16.892569 -2.718589 8.071909 222 222 210
16.966087 -2.725964 8.017254 221 221 211
17.048754 -2.734959 7.965453 223 220 211
17.126919 -2.743130 7.911872 222 219 210
17.174307 -2.745806 7.848031 217 217 207
17.253105 -2.754064 7.794302 218 218 208
17.330103 -2.761984 7.739753 219 219 209
17.410816 -2.770545 7.686129 218 218 208
17.487387 -2.778355 7.630970 218 218 208
17.555115 -2.784590 7.572915 218 218 208
17.632130 -2.792449 7.517483 217 217 207
17.712572 -2.800894 7.462832 218 218 208
17.790306 -2.808845 7.407146 217 217 207
17.864689 -2.816194 7.350281 216 216 206
17.941845 -2.824013 7.293997 216 216 206
18.006727 -2.829676 7.234117 217 217 207
18.078148 -2.836469 7.175900 217 217 207
18.130190 -2.839885 7.112354 217 217 207
18.243637 -2.853947 7.064916 216 216 206
6.806594 -1.733251 16.913300 214 214 204
6.854515 -1.737162 16.865780 213 213 203
6.903568 -1.741407 16.820602 213 213 203
6.950363 -1.744959 16.770342 214 214 204
6.996336 -1.748258 16.718233 216 214 202
7.045577 -1.752529 16.673023 186 184 172
7.094258 -1.756621 16.626453 218 216 204
7.143543 -1.760880 16.580976 215 213 201
7.193662 -1.765371 16.537039 216 214 202
7.244920 -1.770179 16.495207 215 213 201
7.298026 -1.775507 16.456846 217 215 203
7.349971 -1.780477 16.415838 224 222 210
7.403972 -1.786019 16.378620 214 212 200
7.456755 -1.791188 16.338669 214 212 200
7.509738 -1.796393 16.298805 215 213 201
7.563221 -1.801719 16.259598 215 213 201
7.617335 -1.807202 16.221279 215 213 201
7.666439 -1.811254 16.173218 215 213 201
7.718240 -1.816051 16.130037 216 214 202
7.770657 -1.821002 16.087753 217 215 203
7.823022 -1.825923 16.045124 218 216 204
7.876643 -1.831172 16.004513 219 217 205
7.928614 -1.835948 15.960667 217 215 203
7.981153 -1.840864 15.917603 185 183 171
8.033836 -1.845803 15.874553 220 218 206
8.089656 -1.851574 15.836693 217 215 203
8.144289 -1.857002 15.796458 218 216 204
8.195050 -1.861369 15.749349 219 217 205
8.244510 -1.865378 15.699891 220 218 206
8.296009 -1.869921 15.653711 218 216 204
8.348421 -1.874693 15.608855 217 215 203
8.398898 -1.878941 15.560637 217 215 203
8.451217 -1.883663 15.515250 217 215 203
8.500807 -1.887656 15.465299 220 218 206
8.551638 -1.891966 15.417206 220 218 206
8.602174 -1.896189 15.368506 220 218 206
8.656689 -1.901431 15.325850 220 218 206
8.710879 -1.906572 15.282443 221 219 207
8.758892 -1.910113 15.229388 221 219 207
8.809099 -1.914210 15.179592 222 220 208
8.860717 -1.918658 15.131787 221 219 207
8.909871 -1.922472 15.080186 223 221 209
8.957483 -1.925891 15.026245 222 220 208
9.008727 -1.930220 14.977534 223 221 209
9.060495 -1.934670 14.929439 223 221 209
9.114037 -1.939553 14.883717 224 222 210
9.167209 -1.944330 14.837278 225 223 211
9.222977 -1.949736 14.794277 227 225 213
9.273026 -1.953716 14.743126 226 224 212
9.316402 -1.956050 14.682753 230 228 216
9.357751 -1.957895 14.619717 133 131 119
9.403394 -1.960796 14.562577 193 189 177
9.450170 -1.963973 14.506968 232 228 216
9.496079 -1.966940 14.450211 231 228 213
9.544981 -1.970629 14.397367 232 229 214
9.592577 -1.974001 14.342779 229 226 209
9.640280 -1.977396 14.288301 230 224 208
9.685479 -1.980193 14.230625 236 229 211
9.727297 -1.982188 14.168741 90 81 66
9.768523 -1.984051 14.106237 73 61 47
9.815605 -1.987305 14.051060 77 65 53
9.873002 -1.992982 14.008430 74 62 50
9.936101 -1.999978 13.972422 72 62 52
9.994705 -2.005897 13.930660 73 64 55
10.050848 -2.011225 13.885710 75 66 57
10.103211 -2.015660 13.836115 76 67 58
10.153872 -2.019694 13.784417 77 68 59
10.205562 -2.023959 13.733817 77 68 59
10.256730 -2.028096 13.682512 76 67 58
10.308427 -2.032348 13.631708 76 66 56
10.357580 -2.036012 13.577958 74 64 54
10.402064 -2.038612 13.518996 69 57 45
10.432551 -2.038044 13.444760 86 73 64
10.445848 -2.033618 13.352231 79 69 59
10.475235 -2.032863 13.277679 84 75 66
10.515346 -2.034538 13.214889 49 39 37
10.564997 -2.038356 13.162277 43 33 32
10.627506 -2.045037 13.123012 83 74 67
