7.176726 -6.198061 16.691307 32 22 23
7.244918 -6.209868 16.658041 42 31 27
7.295302 -6.205222 16.587460 42 29 21
7.349934 -6.204558 16.525976 35 27 24
7.406208 -6.205433 16.468012 42 34 31
7.451727 -6.196720 16.388706 26 19 11
7.506314 -6.196239 16.327902 43 27 28
7.562886 -6.197561 16.271151 38 23 28
7.617887 -6.197535 16.211466 31 21 19
7.666410 -6.191934 16.139614 36 32 23
7.711656 -6.183637 16.062038 32 24 21
7.759602 -6.177817 15.990060 39 23 23
7.807712 -6.172266 15.918829 44 33 29
7.848975 -6.161067 15.835586 36 25 23
7.898090 -6.156644 15.767149 41 28 22
7.953150 -6.157268 15.709633 43 25 21
8.012446 -6.161421 15.659670 39 32 26
8.072079 -6.165834 15.610238 34 31 26
8.130177 -6.168980 15.558108 38 24 23
8.189734 -6.173303 15.508447 36 25 21
8.249107 -6.177460 15.458418 40 32 30
8.318540 -6.189620 15.425021 36 25 19
8.391056 -6.204099 15.396263 44 32 32
8.452135 -6.209431 15.348426 42 31 27
8.513597 -6.215031 15.301099 34 22 22
8.564893 -6.212712 15.237532 31 22 23
8.614091 -6.208843 15.170914 40 33 27
8.667785 -6.208509 15.111582 34 24 25
8.720366 -6.207372 15.050693 34 24 25
8.767838 -6.202425 14.982231 41 30 26
8.821811 -6.202463 14.923880 35 25 23
8.880110 -6.205770 14.872085 36 31 27
8.940930 -6.210943 14.823982 45 31 30
9.003331 -6.217255 14.778085 38 26 26
9.062533 -6.221183 14.727451 42 34 31
9.121683 -6.225063 14.676706 49 45 36
9.180699 -6.228836 14.625739 61 51 49
9.237693 -6.231144 14.571926 67 63 62
9.287926 -6.228627 14.508833 77 76 74
9.345846 -6.231640 14.456442 84 80 79
9.413236 -6.241346 14.416817 81 80 75
9.483342 -6.252883 14.380547 156 152 143
9.562754 -6.270821 14.356216 175 173 161
9.641747 -6.288295 14.330747 146 143 128
9.731199 -6.312824 14.318219 106 103 88
9.823736 -6.339226 14.308791 121 118 103
9.897824 -6.352770 14.275113 125 121 110
9.966856 -6.362765 14.234700 99 96 87
10.035146 -6.372181 14.193103 106 103 98
10.102624 -6.380982 14.150269 94 93 89
10.165625 -6.386732 14.101786 97 97 95
10.229017 -6.392712 14.053674 112 114 111
10.290043 -6.397099 14.002642 101 103 102
10.354129 -6.403481 13.955159 232 231 226
10.420216 -6.411135 13.909883 233 230 223
10.482908 -6.416535 13.860532 229 226 217
10.542644 -6.420001 13.807727 233 229 217
10.603084 -6.423914 13.755702 242 236 220
10.660528 -6.425905 13.700308 193 186 168
10.716578 -6.427021 13.643412 134 123 105
10.770367 -6.426726 13.584114 231 218 199
10.826609 -6.428011 13.527593 208 195 178
10.887731 -6.432370 13.476362 123 110 93
10.949419 -6.437069 13.425687 198 187 169
11.012322 -6.442506 13.376232 229 218 200
11.071652 -6.445715 13.322986 223 212 194
11.127897 -6.447030 13.266564 222 211 191
11.185823 -6.449390 13.211917 220 208 186
11.245378 -6.452745 13.158932 221 209 187
11.303640 -6.455318 13.104652 221 209 187
11.365387 -6.459992 13.053828 217 205 183
11.428618 -6.465539 13.004399 219 207 185
11.488619 -6.469139 12.951769 221 210 190
11.544737 -6.470432 12.895408 222 211 191
11.603742 -6.473445 12.841840 219 206 187
11.661550 -6.475757 12.787153 220 207 188
11.723759 -6.480648 12.736575 221 208 189
11.788301 -6.486880 12.688082 218 207 189
11.849686 -6.491254 12.636618 215 204 186
11.908395 -6.494075 12.582707 216 203 184
11.967111 -6.496902 12.528812 219 204 185
12.021183 -6.497080 12.470834 213 198 177
12.077818 -6.498742 12.415183 175 160 137
12.132987 -6.499588 12.358313 172 158 132
12.191744 -6.502474 12.304577 219 205 178
12.251126 -6.505714 12.251379 119 112 94
12.310511 -6.508953 12.198178 207 204 189
12.367960 -6.511117 12.143370 224 221 206
12.429460 -6.515528 12.091912 238 236 223
12.495264 -6.522300 12.043910 230 228 215
12.548339 -6.522059 11.985569 229 227 214
12.610019 -6.526546 11.934171 233 231 218
12.667513 -6.528744 11.879438 228 226 211
12.726392 -6.531701 11.825811 231 229 216
12.783513 -6.533711 11.770834 234 230 218
12.838406 -6.534535 11.714186 232 229 214
12.894454 -6.535995 11.658480 145 142 127
12.947268 -6.535749 11.600403 204 201 186
13.008000 -6.539727 11.548281 175 171 159
13.058266 -6.538173 11.488469 101 97 86
13.104729 -6.534660 11.426036 132 130 118
13.147242 -6.529134 11.360956 114 108 96
13.192176 -6.524940 11.297839 110 104 88
13.238877 -6.521725 11.236170 150 147 128
13.271487 -6.511276 11.164880 176 169 150
13.306782 -6.502318 11.095815 189 183 161
13.343970 -6.494429 11.028373 228 224 199
13.379729 -6.485898 10.960272 240 235 216
13.416248 -6.477846 10.892995 233 224 209
13.460948 -6.474027 10.831421 160 153 143
13.509093 -6.472002 10.772285 82 73 68
13.561738 -6.472279 10.716192 100 93 83
13.626578 -6.478685 10.667974 77 69 66
13.672450 -6.475603 10.607664 74 64 62
13.715014 -6.470925 10.545446 76 71 67
13.760849 -6.467925 10.485462 66 60 60
13.814026 -6.468592 10.430136 71 61 59
13.857415 -6.464471 10.368938 76 67 62
13.918698 -6.469159 10.318663 70 65 62
13.984630 -6.476099 10.271105 72 68 65
14.042302 -6.479002 10.218596 75 67 64
14.099346 -6.481599 10.165724 76 67 62
14.150661 -6.481441 10.109572 74 69 66
14.207453 -6.483934 10.056615 68 62 62
14.264666 -6.486634 10.003910 75 65 63
14.315321 -6.486210 9.947564 73 66 60
14.370563 -6.487991 9.893832 72 67 64
14.438155 -6.495624 9.846855 76 68 66
14.497265 -6.499225 9.795194 66 61 57
14.552253 -6.500885 9.741324 69 65 62
14.614165 -6.505797 9.691137 67 62 56
14.658027 -6.502277 9.631498 72 65 57
14.707185 -6.501264 9.574749 69 63 63
14.772519 -6.507772 9.526345 77 69 66
14.842219 -6.516269 9.480057 67 57 55
14.897292 -6.518003 9.426345 68 60 57
14.961364 -6.523868 9.377100 72 64 61
15.026827 -6.530349 9.328466 67 59 57
15.072212 -6.527670 9.270073 71 63 61
15.124528 -6.528175 9.215120 74 66 63
15.186660 -6.533132 9.164851 68 60 57
15.248520 -6.537954 9.114410 71 62 63
15.304533 -6.540139 9.061235 68 64 55
15.365676 -6.544624 9.010417 70 65 62
15.428605 -6.549897 8.960367 65 60 54
15.474622 -6.547640 8.902742 58 54 43
15.532434 -6.550642 8.850428 73 68 65
15.584104 -6.550934 8.795444 73 66 58
15.647192 -6.556266 8.745427 63 53 51
15.699628 -6.556913 8.690837 69 61 58
15.750804 -6.557026 8.635772 67 59 56
15.800852 -6.556666 8.580306 61 53 50
15.880811 -6.569312 8.537172 67 62 58
4.626538 -5.940867 18.850941 47 43 42
4.687008 -5.946964 18.806538 50 46 43
4.736031 -5.937112 18.718920 47 43 40
4.785076 -5.927613 18.632519 47 43 42
4.845846 -5.934280 18.589775 52 47 44
4.905404 -5.939240 18.542393 48 43 39
4.967403 -5.947374 18.503435 51 46 43
5.029714 -5.955797 18.465141 55 50 47
5.094697 -5.967536 18.435518 51 47 44
5.159154 -5.978406 18.403429 52 47 44
5.215281 -5.978606 18.343168 54 50 47
5.275095 -5.983462 18.295147 52 47 44
5.329835 -5.982030 18.230700 53 48 45
5.391706 -5.989382 18.189148 55 52 47
5.451717 -5.994398 18.141472 58 53 50
5.513977 -6.002053 18.100555 51 47 44
5.573001 -6.005796 18.049509 56 51 48
5.637493 -6.015902 18.014719 54 48 48
5.696805 -6.019883 17.964188 56 50 50
5.751152 -6.018174 17.899202 56 51 48
5.808833 -6.020333 17.844086 56 51 48
5.865857 -6.021774 17.787182 58 53 50
5.925980 -6.026682 17.739006 54 46 44
5.986406 -6.031886 17.691532 59 53 53
6.039219 -6.028777 17.623325 61 56 53
6.093668 -6.027547 17.559900 60 52 50
6.156998 -6.035865 17.520136 56 51 48
6.214776 -6.038222 17.465607 57 52 49
6.270831 -6.038791 17.406710 59 51 48
6.329628 -6.042248 17.354912 59 54 50
6.387157 -6.044395 17.299919 58 50 47
6.453464 -6.055491 17.266613 62 54 51
6.514044 -6.060667 17.218876 65 57 54
6.579425 -6.070606 17.182535 65 58 52
6.641911 -6.077555 17.138914 61 53 50
6.708870 -6.088830 17.105524 61 53 51
6.770807 -6.095074 17.060036 64 56 53
6.831487 -6.100051 17.011496 59 52 46
6.892771 -6.105573 16.964201 60 55 52
6.950778 -6.107945 16.909477 60 55 51
7.007294 -6.108926 16.851515 64 56 53
7.061609 -6.107886 16.788897 61 56 53
7.122385 -6.112896 16.740366 59 54 50
7.180707 -6.115621 16.686531 68 63 60
7.238531 -6.117898 16.631672 61 53 50
7.296447 -6.120272 16.577049 59 54 48
7.350685 -6.119357 16.514954 64 59 56
7.414359 -6.126901 16.472116 58 53 50
7.471689 -6.128775 16.416389 63 58 54
7.524152 -6.126405 16.351139 68 58 57
7.576328 -6.123867 16.285618 67 59 57
7.623362 -6.116976 16.210497 69 64 61
7.679890 -6.118366 16.153952 63 58 55
7.730536 -6.114780 16.086435 65 60 57
7.781746 -6.111768 16.020311 71 63 61
7.838541 -6.113523 15.964750 65 57 55
7.889911 -6.110785 15.899407 63 58 54
7.944881 -6.111103 15.840815 68 61 55
8.004848 -6.115556 15.791223 68 59 54
8.070578 -6.124682 15.751670 65 60 54
8.132055 -6.130286 15.704450 66 63 56
8.186299 -6.130047 15.644703 66 59 53
8.240577 -6.129880 15.585172 68 61 55
8.298813 -6.132894 15.532430 63 58 54
8.363203 -6.140746 15.489893 66 61 57
8.433814 -6.153395 15.457327 68 63 60
8.492157 -6.156395 15.404428 62 57 53
8.550149 -6.159126 15.350971 62 57 53
8.605677 -6.159975 15.293624 66 62 59
8.660050 -6.159974 15.234567 63 60 55
8.710031 -6.156692 15.168837 65 61 58
8.760753 -6.154049 15.104527 67 62 58
8.806480 -6.147752 15.032898 65 60 56
8.865110 -6.151140 14.981040 69 64 60
8.925729 -6.155990 14.932121 67 64 59
8.988347 -6.162282 14.886061 71 66 63
9.051825 -6.169158 14.841107 70 66 63
9.105762 -6.169088 14.782283 70 66 63
9.161191 -6.170128 14.725712 71 67 64
9.222166 -6.175157 14.677027 78 73 70
9.281229 -6.178802 14.625597 78 77 75
9.336385 -6.179683 14.568767 77 76 71
9.399087 -6.185884 14.522302 150 146 137
9.468596 -6.196797 14.484879 179 173 161
9.538900 -6.208170 14.448196 148 140 127
9.621334 -6.227808 14.427175 109 103 89
9.701138 -6.245452 14.402051 124 118 104
9.782903 -6.264266 14.378879 122 119 104
9.864460 -6.282759 14.354814 95 95 83
9.931182 -6.291082 14.311382 107 107 99
9.997552 -6.299110 14.267306 92 91 87
10.059241 -6.303965 14.217241 100 100 102
10.121532 -6.309199 14.167848 112 110 113
10.180153 -6.311991 14.113920 132 131 129
10.239861 -6.315499 14.061310 194 195 187
10.296727 -6.317151 14.005310 230 232 219
10.358986 -6.322313 13.955702 232 230 218
10.424647 -6.329648 13.909974 230 228 216
10.485608 -6.333922 13.858678 234 234 222
10.545620 -6.337579 13.806257 208 206 193
10.605294 -6.341016 13.753437 223 217 203
10.661322 -6.342149 13.696536 202 193 176
10.716810 -6.342963 13.639112 216 205 187
10.770985 -6.342980 13.580334 157 146 128
10.827463 -6.344461 13.524158 196 185 167
10.886834 -6.347746 13.471139 227 216 196
10.948839 -6.352651 13.420903 217 206 186
11.009750 -6.356866 13.369457 223 210 191
11.068560 -6.359793 13.315791 223 210 191
11.126367 -6.362112 13.261100 218 207 187
11.183881 -6.364263 13.206141 222 211 191
11.242834 -6.367287 13.152660 223 212 192
11.299910 -6.369191 13.097314 219 208 188
11.360230 -6.373034 13.045208 222 211 193
11.423116 -6.378386 12.995579 223 212 194
11.483269 -6.382109 12.943235 218 205 186
11.539566 -6.383569 12.887185 216 203 184
11.597986 -6.386282 12.833198 217 206 186
11.656098 -6.388819 12.778935 222 211 191
11.717621 -6.393330 12.727854 216 205 187
11.782437 -6.399721 12.679750 218 207 189
11.842409 -6.403310 12.627137 220 207 190
11.900667 -6.405920 12.572969 215 204 184
11.959511 -6.408866 12.519338 215 204 184
12.014606 -6.409700 12.462408 211 198 179
12.072634 -6.412200 12.408109 218 205 186
12.127556 -6.412971 12.351149 214 202 180
12.185880 -6.415656 12.297168 213 201 179
12.245275 -6.418937 12.244106 192 185 167
12.306980 -6.423490 12.192973 234 231 216
12.369734 -6.428605 12.142663 234 232 219
12.432527 -6.433725 12.092323 208 208 196
12.496491 -6.439464 12.042872 216 214 201
12.554880 -6.442160 11.988863 236 233 218
12.617378 -6.447075 11.938134 229 225 213
12.677192 -6.450534 11.885236 232 230 217
12.739594 -6.455373 11.834346 232 230 217
12.801292 -6.459824 11.782861 232 230 217
12.855135 -6.460098 11.725341 228 226 213
12.912970 -6.462504 11.670919 232 230 217
12.968239 -6.463568 11.614602 237 235 222
13.028807 -6.467421 11.562263 162 160 147
13.084972 -6.468975 11.506681 178 176 163
13.141238 -6.470592 11.451216 196 194 181
13.192845 -6.469814 11.392451 102 98 87
13.240541 -6.467054 11.331023 126 122 111
13.289519 -6.465000 11.270662 120 116 104
13.326100 -6.456657 11.201829 106 100 86
13.362118 -6.448120 11.132931 144 137 119
13.401344 -6.441303 11.066545 174 167 148
13.439072 -6.433807 10.999424 182 176 154
13.473976 -6.424980 10.930717 226 218 197
13.518185 -6.420902 10.868477 237 230 212
13.564188 -6.417775 10.807607 230 222 209
13.620758 -6.419944 10.753733 240 234 218
13.683857 -6.425349 10.704058 126 120 108
13.729026 -6.421902 10.642977 71 65 53
13.776287 -6.419532 10.583381 226 219 209
13.827831 -6.419299 10.526585 67 60 52
13.881575 -6.420161 10.471223 66 57 48
13.924909 -6.415990 10.409609 204 195 188
13.984035 -6.419506 10.357660 72 65 59
14.051711 -6.427136 10.310776 84 79 73
14.107727 -6.429139 10.256923 186 179 173
14.166187 -6.432317 10.204517 76 69 61
14.222410 -6.434429 10.150823 131 124 118
14.277701 -6.436107 10.096623 148 141 135
14.334871 -6.438682 10.043517 80 73 65
14.385404 -6.438136 9.986729 204 197 187
14.440965 -6.439976 9.932801 112 105 95
14.504513 -6.445556 9.883252 75 68 58
14.567951 -6.451068 9.833581 234 227 217
14.635345 -6.458397 9.785955 94 87 79
14.694249 -6.461771 9.733749 75 68 58
14.732562 -6.455656 9.670804 248 241 231
14.778630 -6.453166 9.612085 76 69 61
14.844525 -6.459785 9.563609 98 91 81
14.911984 -6.467093 9.515833 250 244 232
14.968644 -6.469464 9.462569 79 73 61
15.030503 -6.474195 9.411887 122 116 104
15.091476 -6.478513 9.360731 231 225 213
15.140933 -6.477645 9.303992 85 78 68
15.192845 -6.477906 9.248520 158 152 140
15.245097 -6.478337 9.193274 204 198 186
15.304391 -6.481920 9.141372 94 87 77
15.361773 -6.484651 9.088577 210 204 192
15.426494 -6.490626 9.039132 185 177 166
15.489687 -6.495910 8.988930 99 91 80
15.538486 -6.494861 8.932270 228 220 207
15.594329 -6.496920 8.878804 149 141 130
15.643238 -6.495963 8.822347 112 104 91
15.698522 -6.497802 8.768722 234 228 216
15.743279 -6.495092 8.710655 132 126 114
15.806138 -6.500233 8.660318 119 113 99
15.861214 -6.502010 8.606705 219 213 199
15.950436 -6.518440 8.567116 130 124 110
4.643100 -5.874521 18.887028 48 44 35
4.706354 -5.884282 18.852694 124 120 111
4.758228 -5.878323 18.775141 58 54 45
4.805734 -5.866695 18.682291 51 47 38
4.865034 -5.871149 18.633490 167 163 154
4.925048 -5.876508 18.587112 43 39 30
4.987456 -5.884925 18.548948 46 42 33
5.048872 -5.891941 18.506907 172 168 159
5.113598 -5.903070 18.475807 47 43 34
5.178564 -5.914313 18.444855 55 51 42
5.237110 -5.917401 18.392042 142 138 129
5.294734 -5.919357 18.336227 58 54 45
5.349450 -5.917809 18.271187 78 74 65
5.412044 -5.925818 18.231375 109 105 96
5.471267 -5.929718 18.180696 59 55 46
5.533176 -5.936755 18.138191 107 103 94
5.588844 -5.936456 18.076530 74 70 61
5.651678 -5.944466 18.036463 56 52 43
5.711534 -5.948987 17.987289 154 150 141
5.770394 -5.952355 17.935129 56 52 43
5.830545 -5.957158 17.886633 53 49 40
5.890613 -5.961833 17.837780 163 159 150
5.954463 -5.970610 17.799316 52 48 39
6.017767 -5.978683 17.758959 55 51 42
6.077032 -5.982334 17.707354 148 143 137
6.133022 -5.982498 17.646978 58 53 49
6.197521 -5.991660 17.609173 70 65 61
6.256134 -5.994579 17.555693 112 107 103
6.314809 -5.997568 17.502386 63 56 50
6.373580 -6.000655 17.449326 115 108 102
6.430094 -6.001458 17.390640 81 74 68
6.498695 -6.014429 17.361841 62 55 49
6.560492 -6.020458 17.315893 161 152 145
6.625444 -6.029545 17.277327 58 49 42
6.684916 -6.033171 17.225410 55 48 40
6.746896 -6.039219 17.179329 178 171 165
6.807002 -6.043417 17.128742 59 52 46
6.866905 -6.047401 17.077627 56 49 43
6.924871 -6.049542 17.022095 121 116 110
6.977365 -6.046579 16.954462 64 59 53
7.035905 -6.049326 16.900454 101 94 86
7.089972 -6.047963 16.836769 84 77 69
7.147744 -6.050055 16.781273 60 53 45
7.201997 -6.048975 16.718393 159 152 144
7.254112 -6.046040 16.651276 56 49 41
7.306894 -6.043796 16.585876 53 46 38
7.362290 -6.043948 16.526108 155 148 140
7.430292 -6.055209 16.491911 66 59 53
7.488719 -6.058005 16.438194 67 60 52
7.540401 -6.054976 16.371216 129 122 114
7.594429 -6.054052 16.309130 68 61 53
7.645352 -6.050545 16.241287 138 131 123
7.704737 -6.054286 16.189873 75 68 62
7.759706 -6.054314 16.130127 69 62 54
7.817522 -6.056756 16.075827 161 154 146
7.881818 -6.064565 16.033449 61 54 46
7.942990 -6.069740 15.985164 62 55 47
8.005081 -6.075635 15.938421 172 165 157
8.069395 -6.083288 15.895476 64 57 49
8.137709 -6.094089 15.859315 62 55 47
8.196829 -6.097450 15.806843 143 136 128
8.246479 -6.093306 15.738132 66 59 51
8.298504 -6.091130 15.673796 114 107 99
8.355076 -6.092578 15.617332 86 79 71
8.415313 -6.096891 15.567013 65 58 52
8.480861 -6.105282 15.525337 147 140 134
8.534405 -6.104412 15.463967 60 53 47
8.588450 -6.103976 15.403585 64 57 51
8.646152 -6.106347 15.349158 189 182 174
8.702985 -6.108077 15.293405 59 52 44
8.755053 -6.106269 15.230328 67 60 52
8.806540 -6.104095 15.166582 171 164 156
8.850829 -6.096686 15.092159 68 63 57
8.912166 -6.101883 15.043771 107 102 96
8.975058 -6.108186 14.997596 131 127 118
9.036736 -6.113570 14.949496 76 72 63
9.098454 -6.118955 14.901356 162 158 149
9.152811 -6.119058 14.842543 98 94 85
9.212790 -6.123185 14.791846 80 76 67
9.275281 -6.129070 14.744633 224 220 211
9.333717 -6.132079 14.691662 133 129 120
9.393168 -6.135797 14.640091 176 172 161
9.455799 -6.141708 14.592820 139 133 121
9.523458 -6.151049 14.552204 110 104 92
9.592337 -6.161150 14.512952 124 118 106
9.667154 -6.175211 14.481242 122 115 107
9.740500 -6.188151 14.447165 98 94 85
9.817556 -6.203473 14.417477 110 107 98
9.890333 -6.215792 14.381829 91 92 84
9.954021 -6.221963 14.334327 96 97 91
10.018488 -6.228617 14.287679 110 111 106
10.074084 -6.229397 14.229913 167 166 164
10.132346 -6.231946 14.175502 141 140 136
10.188258 -6.232973 14.118264 233 232 227
10.244839 -6.234454 14.061909 228 228 216
10.299448 -6.234685 14.003277 233 231 218
10.361135 -6.239476 13.953069 241 237 226
10.427093 -6.246967 13.907760 202 200 188
10.487583 -6.250949 13.855996 214 214 202
10.546686 -6.254049 13.802620 232 230 217
10.604589 -6.256398 13.747891 236 230 214
10.658378 -6.256192 13.688603 208 200 181
10.711407 -6.255548 13.628598 216 203 186
10.766603 -6.256280 13.571097 186 173 156
10.824971 -6.258982 13.517113 218 207 187
10.883824 -6.261984 13.463662 216 205 185
10.944267 -6.265953 13.411899 223 210 191
11.006360 -6.270909 13.361833 218 205 188
11.064736 -6.273613 13.307846 213 200 183
11.122559 -6.275989 13.253304 217 206 188
11.179852 -6.278058 13.198249 217 206 188
11.239304 -6.281415 13.145404 220 212 193
11.295461 -6.282828 13.089267 226 215 197
11.354257 -6.285806 13.035790 222 211 193
11.416826 -6.290987 12.985999 220 207 188
11.476312 -6.294355 12.933159 220 207 188
11.531352 -6.295153 12.876060 220 207 188
11.590987 -6.298616 12.823387 219 206 187
11.650727 -6.302135 12.770801 220 209 189
11.711880 -6.306455 12.719509 217 206 186
11.775677 -6.312264 12.670604 217 204 187
11.835766 -6.315954 12.618240 215 202 185
11.894894 -6.319098 12.564995 215 204 186
11.954956 -6.322766 12.512580 215 204 184
12.010640 -6.323990 12.456290 213 202 182
12.070122 -6.327336 12.403371 216 205 185
12.124925 -6.328099 12.346408 216 203 184
12.179417 -6.328712 12.289252 216 203 184
12.238056 -6.331614 12.235683 191 182 165
12.302624 -6.337746 12.187081 237 234 219
12.368176 -6.344384 12.139199 229 227 214
12.432095 -6.350110 12.089868 232 232 220
12.496203 -6.355914 12.040609 235 233 220
12.553694 -6.358157 11.985952 214 210 198
12.612971 -6.361357 11.932742 207 203 191
12.673833 -6.365397 11.880776 232 230 218
12.736818 -6.370550 11.830435 230 228 215
12.798370 -6.374932 11.778928 230 228 215
12.851713 -6.375006 11.721119 230 228 215
12.909515 -6.377431 11.666767 232 230 217
12.967622 -6.380019 11.612664 229 227 214
13.027866 -6.383716 11.560158 229 227 214
13.085705 -6.386169 11.505873 237 235 222
13.147052 -6.390428 11.454148 185 181 169
13.205846 -6.393373 11.400560 158 154 142
13.262860 -6.395414 11.345714 216 212 201
13.318633 -6.396837 11.290026 114 110 98
13.363974 -6.393011 11.227135 124 118 106
13.405798 -6.387476 11.162022 127 121 107
13.454124 -6.385263 11.101582 103 96 80
13.496831 -6.380292 11.037505 130 123 105
13.536743 -6.373999 10.971792 172 165 146
13.572826 -6.365887 10.903816 173 167 145
13.613642 -6.360193 10.839241 169 163 141
13.664901 -6.359690 10.781657 170 163 144
13.728528 -6.365256 10.732079 170 163 145
13.779261 -6.364529 10.674275 182 175 157
13.829939 -6.363804 10.616542 165 158 142
13.887033 -6.366207 10.562885 169 162 146
13.942201 -6.367688 10.508065 173 166 150
13.988181 -6.364779 10.447719 157 149 136
14.046527 -6.367818 10.394950 174 166 153
14.113863 -6.375132 10.347519 167 159 146
14.172706 -6.378391 10.294987 154 146 133
14.233248 -6.382451 10.243438 166 158 145
14.294784 -6.386970 10.192434 157 149 136
14.350348 -6.388681 10.137996 153 145 132
14.411397 -6.392962 10.086679 169 161 148
14.464530 -6.393553 10.030926 153 146 128
14.521542 -6.395959 9.977373 157 150 132
14.583221 -6.400526 9.926377 168 161 145
14.643660 -6.404510 9.874677 154 147 131
14.716381 -6.414118 9.829494 155 147 134
14.773465 -6.416537 9.775907 159 151 138
14.813295 -6.411110 9.713346 157 149 136
14.862502 -6.409995 9.655829 166 158 145
14.923028 -6.414023 9.604190 160 154 140
14.986190 -6.419231 9.553854 154 148 134
15.039296 -6.419914 9.498451 155 149 135
15.093653 -6.421171 9.443726 150 144 130
15.151518 -6.424005 9.390755 149 143 129
15.206470 -6.425547 9.336384 155 149 135
15.258544 -6.425825 9.280679 146 140 126
15.309564 -6.425658 9.224545 136 130 116
15.368515 -6.428999 9.172186 143 137 121
15.416512 -6.427540 9.114773 140 134 118
15.478204 -6.432090 9.063705 138 131 115
15.541755 -6.437438 9.013439 134 127 111
15.590638 -6.436412 8.956592 133 126 110
15.644115 -6.437397 8.901861 131 124 108
15.700891 -6.439818 8.848614 133 127 111
15.755758 -6.441424 8.794562 133 127 111
15.802352 -6.439498 8.737029 123 116 100
15.858920 -6.441860 8.683799 120 112 99
15.920177 -6.446219 8.632531 119 111 98
16.015377 -6.464950 8.595149 110 102 89
4.666677 -5.817531 18.950123 148 144 132
4.729230 -5.825970 18.912134 137 133 121
4.789201 -5.830798 18.864008 147 143 131
4.836173 -5.818298 18.767904 149 145 133
4.894181 -5.820676 18.713133 133 129 117
4.954438 -5.825989 18.666433 152 148 136
5.013914 -5.830246 18.616800 150 146 134
5.072081 -5.832816 18.562546 133 129 117
5.135764 -5.842305 18.527090 151 147 135
5.199353 -5.851530 18.490791 150 146 134
5.259604 -5.856530 18.442978 140 136 124
5.318365 -5.859686 18.390175 150 146 134
5.372769 -5.857628 18.323423 143 139 127
5.432879 -5.862434 18.275068 143 139 127
5.490765 -5.864600 18.219666 151 147 135
5.549741 -5.868046 18.167671 143 139 127
5.606279 -5.868695 18.108297 153 147 135
5.666653 -5.873740 18.060513 156 150 138
5.724968 -5.876435 18.006546 141 135 123
5.786191 -5.882367 17.961014 156 150 138
5.847848 -5.888718 17.916513 153 147 135
5.909468 -5.894964 17.871675 142 136 124
5.974971 -5.905331 17.837383 159 153 141
6.041469 -5.916613 17.805294 159 153 139
6.103536 -5.923059 17.760683 149 143 129
6.163167 -5.926891 17.709358 158 152 138
6.226575 -5.934622 17.667902 156 150 136
6.289021 -5.941280 17.623640 156 150 136
6.354240 -5.950693 17.586235 155 149 133
6.413126 -5.953607 17.532429 148 142 126
6.467547 -5.952067 17.467516 158 152 136
6.535767 -5.964264 17.436825 161 155 139
6.598173 -5.970596 17.391441 148 141 125
6.663728 -5.979933 17.353401 164 157 141
6.721464 -5.981629 17.296476 161 154 138
6.778335 -5.982522 17.237616 144 137 121
6.838100 -5.986194 17.185568 164 158 142
6.897671 -5.989674 17.133043 162 156 140
6.957184 -5.993094 17.080368 151 145 129
7.013564 -5.993616 17.020714 160 154 138
7.069986 -5.994220 16.961308 158 150 137
7.124085 -5.992755 16.897015 160 152 139
7.184529 -5.997080 16.846567 165 157 144
7.236640 -5.993940 16.778435 155 147 134
7.286145 -5.988589 16.705214 167 159 146
7.335724 -5.983438 16.632627 166 158 145
7.385323 -5.978434 16.560545 152 144 131
7.450966 -5.987442 16.521229 162 154 143
7.510148 -5.990810 16.468727 160 152 139
7.567103 -5.992276 16.411829 156 148 135
7.625943 -5.995361 16.358686 165 157 144
7.682874 -5.996843 16.301874 152 144 131
7.748536 -6.005625 16.261726 159 151 140
7.809968 -6.010825 16.213339 161 153 140
7.871443 -6.016028 16.164921 145 137 124
7.936668 -6.024259 16.123270 161 153 140
7.997689 -6.029013 16.073734 158 151 135
8.060773 -6.035401 16.027809 148 141 125
8.127079 -6.044313 15.987426 158 151 135
8.193925 -6.053572 15.947694 155 148 132
8.254203 -6.057577 15.896283 144 137 121
8.305569 -6.054606 15.829569 152 145 129
8.358223 -6.052719 15.765336 145 138 122
8.414418 -6.053629 15.707274 151 144 128
8.471446 -6.055205 15.650696 153 145 132
8.531523 -6.059120 15.599181 140 132 121
8.582891 -6.056446 15.533530 154 146 135
8.633192 -6.053049 15.466447 153 145 134
8.688883 -6.053754 15.408201 144 136 125
8.743252 -6.053511 15.347996 156 148 137
8.797698 -6.053368 15.288065 153 145 134
8.850602 -6.052138 15.225921 143 135 124
8.895459 -6.045118 15.151780 156 148 137
8.958067 -6.051039 15.104701 150 142 131
9.024652 -6.059779 15.063392 149 141 128
9.088686 -6.066628 15.018086 160 152 139
9.150885 -6.072132 14.969954 151 145 129
9.208179 -6.074153 14.914678 161 155 139
9.267888 -6.077876 14.862875 162 156 140
9.329714 -6.083064 14.814018 159 153 137
9.390221 -6.087315 14.763239 133 127 113
9.452717 -6.092919 14.715144 102 96 82
9.507000 -6.092882 14.655772 124 121 106
9.567924 -6.097393 14.605469 118 114 103
9.636211 -6.106861 14.564914 98 95 88
9.706161 -6.117370 14.526282 111 110 106
9.773991 -6.126378 14.484580 90 89 87
9.843931 -6.136720 14.445359 98 99 94
9.909472 -6.144076 14.400228 107 108 103
9.969925 -6.148046 14.348496 149 148 143
10.030723 -6.152231 14.297161 130 130 122
10.083673 -6.151311 14.236077 230 230 220
10.138731 -6.151795 14.177732 230 230 218
10.193999 -6.152444 14.119744 229 227 215
10.249222 -6.153090 14.061799 234 231 222
10.304150 -6.153577 14.003601 200 197 188
10.364830 -6.157723 13.952256 219 215 204
10.428547 -6.163766 13.904401 234 232 220
10.489019 -6.167749 13.852701 228 228 216
10.547085 -6.170229 13.798229 232 230 217
10.602982 -6.171374 13.741338 237 231 215
10.655411 -6.170408 13.680655 196 188 169
10.709145 -6.170282 13.621563 213 200 181
10.763846 -6.170778 13.563648 184 169 150
10.822074 -6.173436 13.509639 210 197 178
10.879922 -6.175869 13.455240 213 200 181
10.939312 -6.179234 13.402498 216 203 184
11.001799 -6.184441 13.352991 219 206 189
11.059387 -6.186723 13.298328 217 204 187
11.117429 -6.189279 13.244160 217 206 188
11.173874 -6.190903 13.188388 218 207 189
11.232234 -6.193661 13.134595 215 207 188
11.289662 -6.195881 13.079886 216 205 187
11.349069 -6.199254 13.027157 218 205 186
11.409717 -6.203338 12.975629 219 206 187
11.468042 -6.206084 12.921825 218 205 186
11.524657 -6.207855 12.866399 218 205 186
11.583733 -6.211037 12.813344 217 204 185
11.642974 -6.214311 12.760443 216 203 184
11.704681 -6.218972 12.709821 215 204 184
11.767327 -6.224142 12.660007 215 202 185
11.826600 -6.227414 12.607061 215 202 183
11.886045 -6.230780 12.554265 214 201 182
11.949574 -6.236399 12.505094 214 201 182
12.006541 -6.238387 12.450060 219 206 187
12.064571 -6.240968 12.395990 212 199 180
12.120960 -6.242660 12.340521 216 203 184
12.175020 -6.243101 12.283109 218 205 186
12.231911 -6.245094 12.228174 216 208 189
12.297012 -6.251508 12.180144 202 196 180
12.365689 -6.259807 12.134971 236 232 220
12.431181 -6.266363 12.087021 232 230 218
12.495071 -6.272039 12.037664 229 227 215
12.552187 -6.274117 11.982787 230 226 214
12.610402 -6.276782 11.928816 230 228 216
12.672063 -6.281253 11.877568 217 215 203
12.735271 -6.286520 11.827484 200 198 185
12.797210 -6.291109 11.776355 232 230 217
12.850880 -6.291412 11.718874 228 226 213
12.902206 -6.290533 11.659707 228 226 213
12.960841 -6.293433 11.606122 229 227 214
13.023076 -6.298171 11.555206 230 228 215
13.084337 -6.302401 11.503529 233 229 217
13.145016 -6.306327 11.451395 231 227 215
13.210090 -6.312462 11.402390 239 236 221
13.272807 -6.317389 11.351623 207 204 189
13.329120 -6.319099 11.296304 144 141 126
13.383824 -6.320020 11.239908 215 212 197
13.436201 -6.319804 11.181974 139 133 121
13.491605 -6.321110 11.126198 111 105 93
13.544823 -6.321354 11.068999 128 122 108
13.596691 -6.320960 11.010982 106 100 86
13.637382 -6.315138 10.945690 91 84 65
13.670759 -6.305832 10.875875 96 88 69
13.714179 -6.301485 10.812896 98 91 73
13.774814 -6.305500 10.761128 102 95 77
13.828269 -6.306057 10.704795 93 86 68
13.883203 -6.307343 10.649456 101 94 76
13.944201 -6.311533 10.597923 100 91 74
14.000439 -6.313454 10.543441 100 91 74
14.049043 -6.311771 10.484365 101 94 76
14.107051 -6.314558 10.431057 101 94 76
14.177348 -6.323118 10.385053 100 93 75
14.241615 -6.328815 10.335359 103 96 78
14.303832 -6.333538 10.284405 106 99 81
14.367460 -6.338903 10.234219 103 96 78
14.423698 -6.340834 10.179770 101 94 76
14.483107 -6.344233 10.127134 106 99 81
14.535872 -6.344580 10.070795 107 100 82
14.599171 -6.349765 10.020324 107 100 82
14.657610 -6.352722 9.967154 109 102 84
14.712981 -6.354284 9.912333 108 101 85
14.784888 -6.363343 9.866362 111 104 88
14.845169 -6.367115 9.814111 105 98 82
14.893530 -6.365525 9.755631 118 111 95
14.946151 -6.365876 9.699465 113 106 90
15.009446 -6.371010 9.648810 111 105 91
15.071979 -6.375791 9.597719 117 111 97
15.125503 -6.376567 9.542094 122 114 101
15.177878 -6.376853 9.485961 118 110 97
15.235167 -6.379319 9.432292 119 111 98
15.297317 -6.383922 9.380982 121 113 100
15.350842 -6.384745 9.325524 122 114 101
15.403244 -6.385095 9.269591 119 111 98
15.462773 -6.388557 9.217049 118 112 96
15.508304 -6.385961 9.158046 122 116 100
15.569219 -6.390035 9.106189 122 116 100
15.639210 -6.398003 9.058393 115 109 93
15.691576 -6.398390 9.002635 123 117 101
15.741405 -6.397713 8.945827 120 114 98
15.805192 -6.402998 8.895177 120 114 98
15.861094 -6.404925 8.841085 120 114 98
15.912522 -6.404969 8.785122 123 115 102
15.956045 -6.401704 8.725909 118 110 99
16.011730 -6.403585 8.671891 120 112 101
16.102013 -6.419953 8.632090 118 110 99
4.691152 -5.761139 19.016478 70 63 53
4.754505 -5.770298 18.980499 74 67 57
4.817678 -5.779063 18.943287 73 66 56
4.869352 -5.772627 18.863331 68 61 51
4.928395 -5.775957 18.810856 68 61 51
4.986746 -5.778399 18.755905 68 61 51
5.045446 -5.781295 18.702230 69 62 52
5.101549 -5.780955 18.639616 71 64 54
5.163396 -5.787782 18.596796 71 64 54
5.225379 -5.794685 18.554113 74 67 57
5.286878 -5.800921 18.509527 72 65 55
5.344961 -5.803015 18.453602 72 65 55
5.399187 -5.800583 18.385431 76 70 58
5.458266 -5.803932 18.332985 71 65 53
5.516765 -5.806606 18.278717 77 71 59
5.578377 -5.812840 18.233999 72 66 54
5.637887 -5.816636 18.182709 77 71 59
5.694792 -5.817506 18.123625 71 64 54
5.757050 -5.824340 18.080381 71 65 53
5.818411 -5.830116 18.034275 75 69 57
5.878818 -5.834804 17.985252 76 70 58
5.939131 -5.839360 17.935850 75 69 57
6.002756 -5.847405 17.895519 73 67 55
6.067464 -5.856490 17.857794 77 71 59
6.129662 -5.862846 17.812880 75 69 57
6.191190 -5.868450 17.765963 71 65 53
6.251688 -5.872955 17.716171 76 70 58
6.314528 -5.879802 17.672344 75 69 57
6.382689 -5.891914 17.641855 75 69 57
6.439796 -5.892883 17.582903 75 69 57
6.492661 -5.889714 17.513538 67 59 48
6.557781 -5.898612 17.474678 78 70 59
6.617612 -5.902293 17.422623 77 71 57
6.682490 -5.910802 17.382608 75 69 57
6.739106 -5.911368 17.322731 79 73 61
6.793995 -5.910353 17.258987 78 72 60
6.854428 -5.914584 17.208271 82 76 64
6.914549 -5.918507 17.156775 82 76 64
6.974435 -5.922201 17.104700 86 80 68
7.034052 -5.925640 17.051996 89 85 73
7.092321 -5.927857 16.996319 86 80 66
7.149850 -5.929426 16.939091 86 80 66
7.214181 -5.937061 16.896500 91 85 71
7.271483 -5.938431 16.838797 82 76 62
7.325612 -5.937057 16.774574 84 78 64
7.378685 -5.934836 16.708431 89 83 69
7.430857 -5.931924 16.640759 90 84 70
7.494810 -5.939162 16.597136 95 89 77
7.552491 -5.941024 16.540808 90 84 70
7.608899 -5.941834 16.482046 91 85 71
7.668679 -5.945494 16.429962 88 82 68
7.728069 -5.948821 16.377098 86 80 66
7.797036 -5.960016 16.342392 91 85 71
7.861839 -5.967695 16.299442 88 82 68
7.921723 -5.971324 16.247135 89 83 67
7.982574 -5.975722 16.196569 83 77 61
8.040160 -5.977497 16.140028 87 81 69
8.101638 -5.982374 16.090523 79 73 61
8.167245 -5.990476 16.048233 86 80 68
8.231647 -5.997567 16.003584 87 81 69
8.291868 -6.001358 15.951498 87 81 69
8.345185 -5.999820 15.887568 86 80 68
8.399565 -5.999157 15.825667 87 81 69
8.455456 -5.999695 15.766479 86 80 68
8.513863 -6.002169 15.711581 85 77 64
8.576456 -6.007790 15.663562 88 80 67
8.629492 -6.006256 15.599959 83 75 62
8.680479 -6.003268 15.533303 89 81 68
8.735026 -6.002978 15.472570 88 80 67
8.787369 -6.001121 15.408547 87 79 66
8.840367 -5.999804 15.345774 89 81 68
8.891734 -5.997366 15.280706 89 81 68
8.938782 -5.991903 15.209353 93 85 74
9.001821 -5.997936 15.162346 94 86 73
9.068609 -6.006587 15.120760 93 85 72
9.132549 -6.013165 15.074748 90 84 70
9.194628 -6.018398 15.025883 90 84 68
9.252528 -6.020704 14.970929 95 89 73
9.308948 -6.021996 14.913909 92 86 70
9.367281 -6.024625 14.859655 99 93 79
9.427743 -6.028710 14.808379 127 121 109
9.488159 -6.032753 14.756997 117 110 100
9.539956 -6.030974 14.693856 93 89 78
9.597956 -6.033410 14.639268 106 106 98
9.663903 -6.041149 14.595285 86 87 82
9.728741 -6.048099 14.549647 98 98 96
9.790019 -6.052660 14.499208 101 101 99
9.854059 -6.059014 14.452271 112 112 110
9.914873 -6.063230 14.401083 160 159 154
9.972238 -6.065200 14.345495 227 227 219
10.029857 -6.067346 14.290270 230 230 218
10.082939 -6.066598 14.229476 228 226 213
10.138627 -6.067553 14.172026 236 234 219
10.194357 -6.068557 14.114711 201 199 186
10.249670 -6.069321 14.056979 220 217 208
10.304122 -6.069572 13.998320 231 228 221
10.364234 -6.073379 13.946413 228 225 216
10.427574 -6.079180 13.898230 229 227 215
10.489056 -6.083806 13.847804 231 231 219
10.546568 -6.085982 13.792805 229 227 214
10.600664 -6.086084 13.733995 238 232 216
10.653303 -6.085334 13.673676 178 167 147
10.708138 -6.085948 13.615922 174 159 138
10.763989 -6.087200 13.559373 178 162 139
10.823352 -6.090567 13.506685 224 209 186
10.882406 -6.093748 13.453657 226 211 190
10.940795 -6.096535 13.399921 221 206 185
11.001814 -6.100873 13.348954 222 209 190
11.059490 -6.103242 13.294475 224 211 192
11.118630 -6.106470 13.241524 224 213 195
11.175596 -6.108436 13.186358 224 213 193
11.233943 -6.111210 13.132624 222 211 191
11.292405 -6.114054 13.079014 226 213 194
11.352256 -6.117693 13.026782 225 212 193
11.411406 -6.120930 12.973847 224 211 192
11.469405 -6.123513 12.919797 225 213 191
11.527323 -6.126055 12.865686 224 212 190
11.586213 -6.129148 12.812515 224 212 190
11.645153 -6.132268 12.759390 225 213 191
11.707252 -6.137142 12.709190 225 212 193
11.769133 -6.141879 12.658731 222 209 190
11.826889 -6.144332 12.604473 222 210 188
11.884502 -6.146712 12.550107 219 207 185
11.947535 -6.152052 12.500585 220 208 186
12.005700 -6.154732 12.446703 219 207 185
12.063906 -6.157437 12.392871 221 206 185
12.121191 -6.159652 12.338258 217 202 181
12.175958 -6.160526 12.281524 175 160 139
12.229779 -6.160916 12.224063 154 142 120
12.292826 -6.166224 12.174405 208 199 182
12.363233 -6.175399 12.130770 238 232 218
12.428932 -6.182045 12.083083 231 229 217
12.489164 -6.185799 12.030849 230 228 216
12.547586 -6.188603 11.977140 230 228 216
12.607108 -6.191981 11.924316 229 227 215
12.668200 -6.196167 11.872718 226 226 214
12.731128 -6.201290 11.822515 227 225 213
12.793536 -6.206129 11.771850 222 220 208
12.847035 -6.206407 11.714334 198 196 184
12.899108 -6.205984 11.655829 225 223 210
12.957237 -6.208656 11.601957 229 227 214
13.020290 -6.213812 11.551741 228 226 213
13.084604 -6.219583 11.502382 232 228 216
13.147974 -6.224860 11.452262 233 229 217
13.210092 -6.229496 11.401177 231 229 214
13.272511 -6.234270 11.350264 230 228 213
13.333642 -6.238393 11.298393 230 228 213
13.389954 -6.240140 11.243145 222 218 206
13.446600 -6.242062 11.188166 139 135 123
13.508025 -6.246323 11.136475 209 205 193
13.565490 -6.248652 11.082082 161 155 143
13.622093 -6.250569 11.027138 99 93 81
13.670935 -6.248757 10.967107 105 97 84
13.712116 -6.243306 10.902216 102 94 83
13.755911 -6.239172 10.839256 102 94 83
13.816542 -6.243111 10.787263 103 97 85
13.872027 -6.244604 10.731991 97 91 79
13.929167 -6.246890 10.677799 100 92 81
13.994687 -6.253127 10.628819 93 85 74
14.056225 -6.257473 10.577313 92 84 73
14.104957 -6.255826 10.518008 88 80 67
14.162863 -6.258486 10.464335 92 86 72
14.235476 -6.267968 10.419405 91 85 71
14.301568 -6.274389 10.370470 88 82 68
14.361108 -6.277771 10.317640 88 82 68
14.425848 -6.283535 10.267791 89 83 69
14.485645 -6.287021 10.215059 86 80 66
14.545273 -6.290427 10.162222 88 82 68
14.594703 -6.289206 10.103701 87 81 69
14.652929 -6.291991 10.050138 85 79 67
14.703620 -6.291386 9.992478 88 82 70
14.754946 -6.291092 9.935258 91 84 74
14.821438 -6.297602 9.886207 91 84 74
14.878546 -6.299908 9.832122 88 81 71
14.927725 -6.298700 9.773924 77 69 58
14.980042 -6.298912 9.717456 90 82 71
15.049952 -6.306895 9.670030 92 86 74
15.111083 -6.310990 9.618053 90 86 74
15.170241 -6.314213 9.565067 90 86 74
15.230179 -6.317777 9.512462 91 85 73
15.289800 -6.321199 9.459690 95 89 77
15.355354 -6.327189 9.409771 90 84 72
15.411637 -6.329157 9.355360 99 93 81
15.464699 -6.329748 9.299459 91 85 73
15.521229 -6.331841 9.245235 98 91 81
15.569312 -6.330334 9.187144 91 85 73
15.632381 -6.335238 9.135993 92 86 74
15.705429 -6.344364 9.089293 89 83 71
15.767512 -6.348812 9.037563 95 89 77
15.818166 -6.348434 8.980770 87 81 69
15.877224 -6.351610 8.927718 100 94 82
15.924227 -6.349737 8.869481 98 94 83
15.976568 -6.350125 8.813630 102 95 85
16.018599 -6.346241 8.753513 96 89 79
16.068371 -6.345613 8.696776 102 95 85
16.163677 -6.363828 8.658802 98 91 81
4.712116 -5.699389 19.069109 68 61 51
4.777714 -5.711214 19.040827 69 62 52
4.843086 -5.722523 19.010885 70 63 53
4.896214 -5.717835 18.935301 69 62 52
4.955940 -5.721742 18.884224 70 63 53
5.014672 -5.724380 18.829548 70 63 53
5.076867 -5.731338 18.787022 71 64 54
5.132489 -5.730125 18.721537 71 64 54
5.196185 -5.738823 18.683792 70 63 53
5.255998 -5.742726 18.632601 72 65 55
5.315830 -5.746636 18.581415 71 64 54
5.372654 -5.746996 18.520418 72 65 55
5.429375 -5.747297 18.459318 75 68 58
5.489022 -5.751019 18.407640 75 69 57
5.547609 -5.753525 18.352634 74 68 56
5.609161 -5.759375 18.306726 75 69 57
5.672041 -5.766645 18.264603 77 68 59
5.727767 -5.765954 18.200933 77 68 59
5.789347 -5.771719 18.154678 79 71 60
5.854387 -5.781158 18.118196 78 70 59
5.917087 -5.787973 18.074593 79 71 60
5.976514 -5.791257 18.021538 79 71 60
6.040071 -5.798858 17.979895 79 71 60
6.102758 -5.805470 17.935555 80 72 61
6.162205 -5.808690 17.882240 79 70 61
6.222291 -5.812557 17.830620 80 71 62
6.283332 -5.817373 17.781452 81 72 63
6.344734 -5.822516 17.733095 80 71 62
6.409750 -5.831193 17.693825 79 70 61
6.462946 -5.828197 17.624414 79 70 61
6.513771 -5.823010 17.549520 77 68 59
6.572914 -5.825971 17.495584 67 58 49
6.625684 -5.822861 17.426222 81 75 63
6.690992 -5.831703 17.387241 78 74 62
6.749383 -5.833970 17.331566 80 76 64
6.805646 -5.834274 17.270983 81 77 65
6.864699 -5.837195 17.217001 77 73 61
6.925218 -5.841457 17.166359 79 75 64
6.986607 -5.846488 17.117601 81 77 66
7.046925 -5.850525 17.066351 82 80 68
7.107898 -5.855129 17.016478 85 81 70
7.167607 -5.858594 16.963781 84 80 69
7.233124 -5.867138 16.923473 78 74 63
7.293001 -5.870697 16.870941 74 70 59
7.352705 -5.874101 16.818024 80 76 65
7.406792 -5.872697 16.753521 76 72 61
7.459286 -5.870015 16.686037 88 84 73
7.528087 -5.881144 16.651672 88 84 73
7.587611 -5.884404 16.598425 82 78 67
7.644599 -5.885560 16.540186 83 79 68
7.703940 -5.888680 16.486624 84 80 69
7.762084 -5.890824 16.430765 85 81 70
7.830107 -5.900987 16.393686 82 78 67
7.894532 -5.908153 16.349485 82 78 67
7.954588 -5.911771 16.296974 81 77 66
8.015001 -5.915666 16.245092 79 75 64
8.071902 -5.916783 16.186813 83 79 67
8.134915 -5.922707 16.139572 69 65 53
8.201927 -5.931695 16.099262 75 71 59
8.263751 -5.936602 16.049574 74 70 58
8.322830 -5.939385 15.995051 77 73 61
8.378074 -5.939257 15.933988 76 72 60
8.433240 -5.939116 15.872957 76 72 60
8.488387 -5.939004 15.812059 76 72 60
8.548632 -5.942731 15.759747 77 73 61
8.612023 -5.948779 15.712550 78 71 61
8.666807 -5.948464 15.651296 79 72 62
8.719128 -5.946393 15.586267 81 74 64
8.775176 -5.947096 15.527386 78 71 61
8.826414 -5.944364 15.461098 82 75 65
8.877962 -5.941927 15.395564 79 72 62
8.930087 -5.939973 15.331177 77 70 60
8.982244 -5.938105 15.267074 79 72 62
9.043848 -5.942935 15.217342 79 72 62
9.106696 -5.948613 15.169374 80 73 63
9.170954 -5.955236 15.123354 78 74 63
9.231893 -5.959528 15.072365 79 75 66
9.288314 -5.960711 15.014846 80 76 67
9.341352 -5.959611 14.952616 83 78 72
9.394540 -5.958665 14.890784 83 78 72
9.452484 -5.960968 14.835733 90 85 81
9.511644 -5.964093 14.782387 102 99 92
9.563678 -5.962480 14.719357 84 84 76
9.621325 -5.964633 14.664079 92 93 87
9.685444 -5.971049 14.617448 102 103 98
9.745680 -5.974891 14.565568 104 105 100
9.801054 -5.975566 14.507322 201 201 193
9.860190 -5.978698 14.454030 234 234 224
9.917801 -5.980851 14.398788 231 229 217
9.973419 -5.981741 14.341074 230 228 216
10.029732 -5.983097 14.284317 229 227 214
10.083224 -5.982691 14.224147 206 204 191
10.139346 -5.983976 14.167336 225 223 211
10.196414 -5.985871 14.111742 230 228 216
10.252436 -5.987130 14.054944 227 225 213
10.306952 -5.987478 13.996435 229 227 215
10.366478 -5.990935 13.943911 229 227 215
10.428887 -5.996150 13.894721 227 227 215
10.490187 -6.000669 13.844172 229 229 217
10.547649 -6.002852 13.789207 232 228 216
10.601068 -6.002610 13.729725 240 233 217
10.652724 -6.001348 13.668407 185 174 154
10.707678 -6.002096 13.610892 194 179 156
10.764407 -6.003919 13.555405 214 198 173
10.824851 -6.007945 13.503976 225 211 185
10.883641 -6.010992 13.450745 224 209 186
10.940474 -6.012896 13.395443 225 210 189
10.999783 -6.016251 13.342779 223 211 189
11.056702 -6.018222 13.287629 223 210 191
11.114545 -6.020736 13.233468 226 213 194
11.171841 -6.022943 13.178772 225 214 194
11.231395 -6.026442 13.126378 223 212 190
11.289613 -6.029181 13.072639 226 213 194
11.349527 -6.032881 13.020585 227 215 193
11.407728 -6.035613 12.966839 221 206 185
11.465342 -6.038021 12.912538 226 211 190
11.523698 -6.040848 12.858972 229 214 193
11.582522 -6.043936 12.805857 226 211 190
11.641143 -6.046913 12.752550 224 212 190
11.701242 -6.050700 12.700618 221 209 187
11.761445 -6.054537 12.648756 223 211 189
11.819938 -6.057440 12.595318 223 211 189
11.877973 -6.060096 12.541474 219 207 185
11.939404 -6.064583 12.490666 222 210 188
11.999607 -6.068400 12.438729 221 206 183
12.059427 -6.072007 12.386435 221 206 183
12.115729 -6.073742 12.331090 217 201 178
12.171363 -6.075136 12.275219 220 204 179
12.224896 -6.075441 12.217629 220 205 182
12.287024 -6.080270 12.167318 206 195 177
12.357901 -6.089644 12.124193 236 230 216
12.425519 -6.097272 12.078196 230 228 216
12.484824 -6.100565 12.025310 230 227 218
12.543453 -6.103509 11.971874 230 228 216
12.603863 -6.107366 11.919860 229 227 215
12.663909 -6.111031 11.867534 227 227 215
12.725555 -6.115505 11.816437 227 225 213
12.789058 -6.120904 11.766726 227 225 213
12.842558 -6.121248 11.709317 229 227 215
12.897101 -6.122138 11.652780 226 224 212
12.953526 -6.123985 11.597715 197 195 183
13.017653 -6.129675 11.548387 217 215 202
13.081764 -6.135334 11.498965 232 230 217
13.143685 -6.139891 11.447881 228 226 213
13.204564 -6.143926 11.396005 229 227 214
13.265481 -6.147972 11.344128 229 227 214
13.328317 -6.152943 11.293569 230 228 215
13.386929 -6.155851 11.240021 229 227 214
13.447896 -6.159899 11.188097 231 227 215
13.511926 -6.165413 11.138230 235 231 219
13.572613 -6.169306 11.086041 148 145 130
13.631268 -6.172221 11.032475 165 162 147
13.684348 -6.172487 10.975237 111 107 96
13.734541 -6.171406 10.916196 113 106 98
13.783753 -6.169897 10.856643 106 99 93
13.846368 -6.174722 10.805786 104 99 93
13.904283 -6.177334 10.751909 104 99 93
13.961121 -6.179447 10.697371 105 100 94
14.023958 -6.184356 10.646577 104 97 89
14.085940 -6.188855 10.595207 103 96 88
14.133569 -6.186723 10.535097 100 96 87
14.192368 -6.189763 10.481832 98 94 85
14.265435 -6.199336 10.437037 98 94 85
14.330413 -6.205171 10.387315 98 94 85
14.387223 -6.207274 10.332771 96 92 83
14.448306 -6.211319 10.280711 93 89 80
14.507177 -6.214359 10.227367 89 85 76
14.563579 -6.216290 10.172637 94 90 81
14.610646 -6.214051 10.112742 92 88 79
14.663321 -6.214352 10.056079 88 84 75
14.715422 -6.214417 9.999177 89 84 78
14.764787 -6.213292 9.940882 89 84 78
14.825042 -6.217005 9.888500 85 80 74
14.880589 -6.218643 9.833622 92 87 81
14.937193 -6.220752 9.779331 67 63 54
14.993895 -6.222913 9.725118 80 73 65
15.063615 -6.230745 9.677566 81 77 66
15.125592 -6.235185 9.625987 76 74 62
15.187341 -6.239518 9.574260 78 76 64
15.248675 -6.243664 9.522297 79 77 65
15.307628 -6.246780 9.469145 78 74 63
15.381408 -6.256238 9.423142 80 76 65
15.437011 -6.257905 9.368313 83 79 68
15.491517 -6.259116 9.313002 81 77 66
15.548377 -6.261335 9.258835 82 78 69
15.599368 -6.261086 9.201985 71 67 56
15.662902 -6.266132 9.150934 71 64 54
15.726988 -6.271397 9.100083 79 73 61
15.789338 -6.275921 9.048406 74 68 56
15.845428 -6.277832 8.993938 70 63 53
15.909132 -6.282908 8.942813 83 79 68
15.956537 -6.281232 8.884629 96 92 83
16.007683 -6.281129 8.828152 103 99 88
16.055861 -6.279827 8.770504 93 89 78
16.100660 -6.277171 8.711559 112 108 97
16.198420 -6.296167 8.674479 109 105 94
4.733018 -5.637050 19.121347 148 142 130
4.799683 -5.649924 19.096281 147 141 129
4.865375 -5.661304 19.066681 146 140 128
4.919611 -5.657923 18.994370 145 139 127
4.978865 -5.660998 18.940735 145 139 127
5.039311 -5.665552 18.891327 144 138 126
5.101830 -5.672612 18.849031 143 137 125
5.158692 -5.672730 18.786943 144 138 126
5.223537 -5.682470 18.752136 141 135 123
5.284379 -5.687326 18.703423 140 134 122
5.345872 -5.692901 18.656693 142 136 122
5.401736 -5.691912 18.591551 142 136 122
5.458832 -5.692422 18.530678 144 138 124
5.520050 -5.697654 18.482960 146 140 126
5.579403 -5.700752 18.429302 146 140 126
5.640313 -5.705576 18.380394 145 139 125
5.704565 -5.714024 18.341394 145 137 124
5.760679 -5.713539 18.277868 145 137 124
5.824247 -5.721127 18.236399 146 138 125
5.890554 -5.731533 18.202473 146 138 125
5.955609 -5.740476 18.164446 146 138 125
6.013645 -5.741995 18.106321 148 140 127
6.079296 -5.751398 18.069359 147 139 126
6.143769 -5.759474 18.028723 149 142 126
6.198543 -5.757651 17.961657 152 145 127
6.257274 -5.759884 17.905441 152 145 127
6.319744 -5.765844 17.859076 152 145 127
6.379267 -5.768856 17.804901 152 145 127
6.439181 -5.772248 17.751730 152 145 127
6.491026 -5.767853 17.678247 148 141 123
6.540074 -5.760921 17.598331 146 139 121
6.595747 -5.760444 17.535322 131 124 106
6.641627 -5.750836 17.448868 96 92 83
6.698062 -5.751275 17.388454 52 49 44
6.758473 -5.755430 17.337591 53 50 45
6.817411 -5.758220 17.283232 54 51 46
6.876359 -5.761024 17.228914 52 49 44
6.937472 -5.765781 17.179537 56 53 48
6.998783 -5.770686 17.130493 63 60 55
7.060505 -5.775925 17.082253 59 56 51
7.123144 -5.781934 17.035887 64 61 54
7.185323 -5.787497 16.988350 64 61 54
7.250465 -5.795576 16.946989 61 58 51
7.310964 -5.799601 16.895546 67 64 57
7.371714 -5.803826 16.844568 54 51 44
7.425390 -5.802071 16.778969 47 44 37
7.477990 -5.799494 16.711468 51 48 41
7.547018 -5.810634 16.677301 44 41 36
7.607425 -5.814554 16.625563 55 52 47
7.666423 -5.817309 16.571009 62 59 54
7.726198 -5.820701 16.517986 63 60 55
7.784848 -5.823184 16.462791 64 61 56
7.849576 -5.830531 16.419144 63 60 55
7.912326 -5.836248 16.371563 74 71 66
7.973057 -5.840339 16.320105 76 73 68
8.036016 -5.846157 16.272669 72 69 64
8.094761 -5.848665 16.217470 74 71 66
8.158636 -5.855135 16.171474 80 77 72
8.225682 -5.863985 16.130907 83 80 75
8.287182 -5.868541 16.080349 80 77 72
8.345684 -5.870816 16.024540 83 80 73
8.401754 -5.871279 15.964619 82 79 72
8.459203 -5.872807 15.907164 83 80 73
8.514603 -5.872839 15.846365 83 80 73
8.576359 -5.877581 15.796223 84 81 74
8.640488 -5.884033 15.749878 85 82 75
